-20.4971 10.2421 3.30831
-19.9595 9.44243 3.51892
-22.4395 10.4623 3.41329
-21.5881 9.53365 3.62077
-24.6538 10.698 3.52781
-24.2796 10.6335 2.85739
-27.1297 10.9196 3.63896
-24.5039 9.40364 3.69636
-27.1318 10.9869 2.93682
-27.608 10.4198 3.45154
-26.9697 9.53069 3.84777
-18.9358 6.95247 1.49562
-9.75506 4.5854 0.454482
-19.0861 6.55108 1.33393
-19.152 5.29107 1.37899
-19.2039 4.87113 0.662056
-19.3855 3.27028 0.603525
-10.1515 -0.561998 -0.612086
-6.21588 0.134217 -0.522901
-3.93764 -0.552296 -0.861853
-3.40612 -0.592438 -0.896507
-2.98065 -0.789979 -0.981163
-2.30502 -1.53547 -1.36495
-1.92903 -2.23724 -1.61318
-1.47643 -2.26403 -1.61765
-0.897367 -2.07116 -1.61266
4.58793 -3.48121 -1.76367
6.07001 -3.33427 -1.45755
7.29455 -2.72266 -1.22882
13.4477 -5.76316 -1.52363
7.53075 -2.19122 -0.996545
13.4715 -4.72491 -1.43007
8.00796 -1.5688 -1.12086
13.0999 -2.85564 -0.712234
13.7937 -2.82882 -0.255978
16.212 -3.31034 -0.137219
17.6735 -3.29949 -0.429645
17.9404 -3.29502 -0.87934
13.7757 -1.96075 -1.0401
13.5708 -1.42826 -0.0796034
12.9812 -1.0833 -0.731484
13.7026 0.059288 0.556425
13.763 0.47973 1.16319
6.04913 1.65939 0.627058
7.70024 2.09409 0.551544
7.96002 2.63668 0.801199
6.58688 3.03607 1.32021
6.28313 3.13827 1.32636
8.42679 3.63974 1.8497
6.69573 3.50092 1.54989
5.51919 3.82217 1.33305
7.3649 4.52692 1.84503
6.71427 4.49689 1.76582
5.93224 4.55026 1.71209
10.3363 6.49455 3.05564
8.45749 5.66726 2.80715
9.87147 6.9182 2.83177
8.20374 6.08307 2.65272
9.03416 6.37751 3.22315
7.78452 6.1138 2.62704
7.70959 5.99926 2.87025
7.36688 6.12885 2.59466
7.8495 6.51888 3.13926
7.60926 6.71917 2.89709
8.19448 7.68995 3.0789
8.01695 7.099 3.44457
7.41712 7.09473 3.05967
7.72722 7.17651 3.44695
8.20334 7.87296 3.50682
7.65254 8.3253 2.99978
8.49704 8.23043 4.06312
10.4728 10.1384 4.80818
7.44762 8.3242 3.33256
10.2778 9.81215 5.06492
10.7143 11.3344 4.94147
9.93766 9.93229 5.08461
10.4816 11.5899 5.05174
9.67321 10.1018 5.13677
9.86539 10.8633 5.11003
9.80481 11.4385 4.94287
9.47531 10.9403 5.11346
9.62891 10.8562 5.51141
8.94013 11.5155 4.93468
6.48475 8.40804 3.91406
6.70399 9.10126 3.97943
9.01495 12.0607 5.20035
6.54472 8.76982 4.10407
6.43872 9.16932 3.99131
6.44123 8.986 4.20079
6.31286 9.38227 4.08727
6.47894 10.7975 4.11487
6.90892 9.81483 4.67525
8.63859 12.3841 5.76291
7.93804 12.0683 5.55371
8.10488 11.9808 5.91355
7.39204 11.6081 5.64603
6.0427 10.6179 4.68766
3.77464 9.86815 3.65184
3.9069 10.2918 4.12772
3.96001 11.5291 4.7439
3.29593 9.04162 3.90955
2.94603 9.05815 3.69527
3.29328 10.3023 4.35297
2.89101 11.4196 4.39821
4.10077 11.6918 5.37262
2.29366 10.4008 3.91382
1.99339 9.97052 4.11854
2.07915 9.79817 4.20744
-3.98274 9.30676 3.66188
-5.57483 9.54658 3.88837
-8.33603 9.70992 4.26594
-8.02106 8.03005 3.37573
-8.6339 5.58665 2.49522
-9.06489 5.86453 2.50022
-11.7914 7.55874 3.05707
-12.4803 7.5463 3.08588
-9.61499 5.62048 2.45325
-12.6141 6.85151 3.0552
-9.72349 5.11141 2.44498
-13.9326 7.45876 3.11961
-13.3006 6.78167 3.08018
-12.2316 5.62335 2.99435
-14.8645 7.44135 3.16103
-12.6971 5.47348 2.99812
-15.9417 7.43553 3.21547
-14.904 6.63159 3.14496
-13.9691 5.92554 3.05561
-17.0844 7.40343 3.26271
-15.8347 6.54306 3.18426
-14.8674 5.83622 3.11807
-18.4508 7.3815 3.32951
-16.8078 6.4277 3.21551
-15.6994 5.69127 3.15141
-14.5454 5.01186 3.07029
-19.8954 7.32339 3.38468
-17.4625 6.19309 3.17046
-16.4433 5.49849 3.15408
-15.2998 4.83297 3.10585
-17.6515 5.35813 3.23309
-15.9822 4.61822 3.11665
-28.5466 4.35774 3.37496
-10.2169 -1.52961 0.109767
-6.14676 -0.0917387 -0.536441
-10.4221 -3.08601 -0.345245
-10.4966 -3.66436 -0.508807
-10.528 -3.96154 -0.593363
-5.33422 -1.10284 -0.56073
-5.47028 -1.68209 -0.532241
-4.88089 -1.70032 -0.602343
-3.31447 -1.61106 -0.862649
-3.64037 -2.11809 -0.836362
-2.95235 -1.56367 -0.990751
-3.30387 -2.23755 -0.893992
-3.0308 -2.68375 -1.02453
-2.90512 -2.70228 -1.0376
-2.69158 -3.06852 -1.2656
-2.36417 -3.26398 -1.4518
-2.75555 -3.58384 -1.25835
-2.32379 -3.5889 -1.40323
-2.68666 -4.18802 -1.40414
-2.17763 -4.06359 -1.65735
-2.47548 -4.51068 -1.48943
-1.89425 -4.17639 -1.68163
-2.20423 -4.74043 -1.68603
-1.89577 -4.84052 -1.71198
-2.22256 -5.42768 -1.71248
-1.45086 -4.28407 -1.69727
-1.87882 -5.48915 -1.7364
-1.70958 -5.52693 -1.74926
-1.2501 -4.94006 -1.73209
-1.3521 -5.49785 -1.75038
-0.70483 -4.50396 -1.72243
-0.765564 -5.03532 -1.74705
-0.395587 -4.60955 -1.73332
-0.831724 -5.52305 -1.76286
-0.270264 -5.14662 -1.75997
-0.486443 -5.55597 -1.77232
0.439572 -4.53545 -1.74799
0.0700076 -5.24826 -1.7728
0.609937 -4.63421 -1.75652
0.0433107 -5.63485 -1.78793
0.602583 -5.04019 -1.77634
1.17363 -5.00968 -1.79654
0.595556 -5.76014 -1.8079
1.59241 -5.29494 -1.82358
1.19169 -5.70506 -1.82686
1.61239 -5.66021 -1.84717
2.05533 -5.61673 -1.85345
1.39579 -6.03849 -1.85056
1.85369 -6.06723 -1.8723
2.59826 -6.04813 -1.90158
2.33565 -6.11961 -1.89502
3.20953 -6.51668 -1.94578
2.90993 -6.53679 -1.94186
2.34116 -6.5009 -1.91927
3.55816 -6.80008 -1.97561
3.56213 -7.00709 -1.99036
4.02891 -6.78654 -1.90062
4.72858 -7.16382 -1.89846
5.1804 -7.48781 -1.91864
8.40392 -8.90466 -1.77252
7.59355 -8.41067 -1.82042
9.10849 -9.29712 -1.76156
7.41351 -8.21164 -1.8529
8.62047 -8.77041 -1.76401
13.2312 -12.3478 -1.91151
7.73819 -7.68679 -1.77909
8.95678 -7.38366 -1.19059
9.24401 -8.55267 -1.70289
8.13639 -7.70689 -1.74067
14.6237 -12.5726 -1.70286
9.00524 -7.41145 -1.41273
13.3256 -10.7358 -1.55104
14.6608 -12.54 -2.06372
8.29699 -5.86904 -1.21766
13.346 -9.21835 -1.07471
13.4932 -7.52013 -0.498685
13.8607 -7.1709 -0.561436
13.5726 -6.12029 0.253802
13.798 -6.47838 -0.0869689
13.4847 -6.10005 -0.280213
13.5416 -4.60327 0.23169
13.6633 -3.11073 1.41447
13.6731 -2.80469 1.53837
13.7906 -0.367256 1.85319
13.7812 0.665736 1.88821
6.4705 1.43879 1.45795
6.78169 1.5047 1.17786
13.2875 1.02316 1.94585
6.4955 1.57239 1.52559
5.42624 2.00983 1.444
5.47491 2.12573 1.51214
7.70207 2.29116 1.71111
5.66498 2.36338 1.67806
6.65994 2.82675 2.17208
6.71274 3.09364 2.09181
7.60414 3.3857 2.44491
7.48904 3.64657 2.05069
5.66765 3.10726 2.05195
5.3794 3.1843 2.0162
6.49144 3.68107 2.56825
7.36686 4.04629 2.99054
6.99092 4.28797 3.02377
8.39474 4.91046 3.41459
9.34529 5.19549 4.12395
8.22523 5.28328 3.57786
14.0866 7.37611 6.54073
9.01933 5.81058 4.04094
14.1223 7.74573 6.75564
14.0167 8.06701 6.91111
14.3066 8.64369 6.76063
6.50714 5.15661 3.38832
6.86729 5.78427 3.29268
6.68437 5.42055 3.58352
6.65549 5.59968 3.68056
6.40257 5.72013 3.42795
14.0845 10.7468 7.3578
6.22334 5.76328 3.6737
9.61581 8.01948 5.4203
11.7645 9.76647 6.39905
6.2156 6.22822 3.68381
7.07162 7.33512 4.2063
5.78679 6.092 3.76799
6.1027 6.59455 3.8779
9.06534 9.07181 5.54544
6.13383 6.84654 4.0346
10.7997 11.3987 6.70182
6.0346 7.01447 4.11891
6.36347 7.61988 4.26127
5.94616 7.54346 4.15166
5.63088 6.83667 4.19353
5.18665 6.80979 3.83795
5.22381 6.73443 4.04037
5.50684 7.32592 4.21177
6.90255 9.01207 5.17559
5.27712 7.00684 4.2237
5.84204 8.31496 4.60063
5.51113 8.7787 4.54833
5.51824 7.73057 4.73518
5.24062 8.82082 4.54691
4.57025 7.06837 4.11972
4.45206 7.19362 4.17772
3.98501 9.8699 5.08807
4.08264 9.74867 5.29591
3.43705 9.84087 5.03759
3.53237 9.42737 5.27993
3.17353 11.0873 5.81691
2.82868 10.9177 5.69593
2.33181 9.75697 5.16676
2.2593 9.35066 5.29023
-7.84828 16.4288 10.0047
-7.71405 16.8055 10.4239
-8.01515 14.2907 8.69588
-8.03518 13.6447 8.30055
-7.95892 14.1278 8.64668
-8.3762 11.8189 7.24867
-8.63509 11.1506 6.90116
-8.41599 11.5964 6.998
-8.68268 9.5618 5.98403
-8.64393 10.0781 6.05096
-9.07864 8.47333 5.3739
-9.05395 8.61987 5.20665
-9.07442 6.52944 4.41841
-8.43306 3.92317 2.47813
-8.47054 3.46277 2.45381
-9.21615 2.98747 2.41004
-12.3228 3.11544 2.90016
-9.98193 0.112952 1.45221
-10.0746 -0.594986 0.954776
-10.1431 -1.46189 1.54007
-10.268 -2.14237 0.495198
-10.3591 -3.20878 1.14239
-10.4158 -3.76093 1.02605
-10.4886 -4.21943 0.604534
-10.525 -4.30039 -0.0666606
-10.5313 -4.54074 0.537517
-10.574 -4.6576 -0.150298
-7.7047 -3.49801 -0.301017
-8.40349 -4.08121 -0.0602186
-10.6674 -6.00029 0.603497
-10.7754 -6.72537 0.115749
-10.8293 -7.15492 0.0412122
-10.8986 -7.61217 -0.0368222
-6.34718 -5.71376 -0.677402
-6.49556 -5.80842 -0.42708
-8.77469 -9.06939 -0.279144
-6.18906 -6.10027 -0.51593
-9.0444 -9.92261 -0.360332
-7.83706 -8.91781 -0.726772
-8.22649 -9.26041 -0.396127
-6.889 -8.71447 -1.10407
-7.162 -8.89357 -0.804305
-7.49168 -9.14177 -0.48962
-6.85744 -8.91534 -0.842494
-7.1391 -9.08003 -0.531266
-6.49504 -9.1593 -1.20358
-6.64875 -9.1006 -0.889663
-7.1155 -9.56943 -0.597346
-6.44028 -9.28713 -0.936301
-7.17038 -10.2391 -0.674935
-6.25031 -9.51496 -0.984715
-7.17596 -10.8589 -0.751876
-6.04958 -9.73553 -1.03197
-8.28109 -13.7496 -0.96172
-4.44833 -6.87805 -0.810317
-7.53615 -13.0175 -0.964584
-4.30663 -7.53012 -1.11921
-4.34224 -7.16219 -0.855176
-7.33752 -13.4152 -1.03138
-4.30644 -7.6505 -0.9162
-7.31502 -14.2502 -1.12948
-3.88203 -7.16003 -0.887641
-6.95834 -14.3433 -1.17551
-3.94586 -8.64085 -1.27685
-4.38951 -10.0481 -1.19018
-3.55656 -9.09789 -1.34471
-4.37512 -10.9302 -1.29129
-5.76001 -14.1994 -1.26974
-3.42238 -9.60925 -1.40826
-4.10749 -11.0499 -1.31785
-5.44828 -14.3867 -1.3158
-3.25015 -10.0495 -1.46228
-3.91097 -11.4637 -1.36983
-4.85467 -13.6132 -1.28205
-2.58033 -9.74257 -1.64709
-3.06332 -10.495 -1.51721
-3.70443 -11.9014 -1.42426
-4.69797 -14.3433 -1.36512
-2.47189 -10.7912 -1.77975
-3.14598 -10.7671 -1.32006
-4.31337 -14.2508 -1.38098
-2.37532 -12.2386 -1.96318
-2.73791 -11.9926 -1.69044
-3.30454 -13.0652 -1.55824
-2.59446 -13.1881 -1.82674
-3.81362 -15.336 -1.51296
-1.76667 -12.7502 -1.99822
-2.48789 -15.0647 -2.04018
-2.937 -15.0625 -1.77156
-3.67425 -16.6476 -1.64416
-1.47453 -13.3504 -2.05879
-2.15133 -15.5322 -2.08316
-2.7631 -16.6292 -1.93296
-2.58222 -18.776 -2.14967
-3.28791 -19.8052 -1.94935
-3.01398 -21.4953 -2.11173
3.05031 -20.3429 -2.49576
3.58747 -20.5503 -2.45459
3.77193 -18.8988 -2.21275
3.42251 -26.956 -2.72285
4.19295 -18.6343 -2.1159
3.7969 -20.4919 -2.20336
2.50231 -21.632 -2.08404
4.61948 -18.4332 -2.02328
4.24269 -20.191 -2.11542
3.90587 -22.3948 -2.21553
3.92915 -28.0488 -2.60882
5.10366 -18.4871 -1.95426
4.58752 -19.4953 -1.98935
4.22381 -21.2666 -2.07069
4.68284 -20.9755 -1.9954
4.73677 -25.3097 -2.31092
5.97602 -18.2164 -1.77183
5.30772 -18.5503 -1.78255
4.85266 -19.5346 -1.82474
5.23235 -24.7859 -2.23067
6.35468 -17.9322 -1.66624
5.26503 -22.3301 -1.99241
6.81328 -17.8766 -1.5724
6.1225 -18.1136 -1.6105
5.60844 -18.745 -1.65787
5.04046 -19.2496 -1.70954
7.37286 -18.0869 -1.49616
6.69538 -18.3888 -1.55643
7.73914 -17.7732 -1.3781
7.41811 -19.0173 -1.5228
7.05155 -20.1649 -1.64098
5.95401 -19.023 -1.60839
8.14409 -17.5704 -1.26454
6.39637 -18.8661 -1.55082
12.724 -25.9251 -1.5213
12.9414 -27.1339 -1.63042
13.8212 -11.8996 1.27591
13.8585 -10.0144 1.28015
13.5172 -9.23487 1.358
13.0086 -7.09631 1.7117
8.19416 -3.97119 0.8547
13.6079 -7.40476 1.51582
13.2316 -5.83573 2.6714
13.535 -5.32062 2.95094
13.189 -5.05742 2.60547
13.5017 -4.87761 2.77161
13.1795 -3.90514 2.65626
13.5647 -3.73856 2.8399
13.5955 -3.41583 2.95631
13.8207 -0.296718 4.99992
13.836 -0.0202782 5.13316
13.9381 0.244434 5.30117
14.9688 0.406832 5.82771
13.9946 0.62501 4.22699
14.9924 0.706968 5.98327
6.97051 1.60436 2.91301
7.20262 1.88465 3.15667
6.82777 2.03913 3.07201
6.10562 2.30652 2.89734
5.96501 2.68435 3.04608
14.1085 3.53504 6.58684
6.07419 2.82469 3.17385
5.81069 3.05425 3.19332
6.78154 3.49939 3.88484
6.37277 3.56992 3.75146
6.86064 3.79655 3.82794
7.11455 3.97531 3.77041
6.06224 4.23376 4.04852
14.3321 7.25997 8.93376
5.81947 4.30468 3.99588
6.22879 4.94601 4.06945
5.80937 4.60999 4.20203
5.32309 4.88826 3.72536
5.69889 5.0711 4.2228
5.26878 5.0285 4.03714
5.61605 5.18203 4.53233
4.90779 5.16837 4.01182
4.99045 5.40516 3.98242
5.78594 5.63278 4.9308
4.65067 5.52481 4.18941
4.48805 5.36966 4.24366
4.47455 5.58117 4.17428
7.04226 7.326 6.69561
5.16195 6.27917 4.93409
5.19782 6.23966 5.18017
5.4634 7.04021 5.34329
3.90015 6.18756 4.04485
4.91051 6.43941 5.23864
5.08682 6.90478 5.40184
4.65387 6.75745 5.15587
3.90722 6.27824 4.5521
4.14189 6.41133 4.959
3.35968 6.79926 4.41482
2.76489 8.41677 5.89846
2.41196 8.41397 5.62474
2.4694 8.754 6.15414
2.35585 9.41714 6.48266
2.50573 8.55522 6.2044
2.58449 8.42049 6.30482
2.38906 8.46036 6.3018
1.8907 9.01143 6.31773
1.99277 8.92034 6.45911
1.81744 9.0481 6.55198
1.90751 8.85985 6.58169
-7.6176 15.0371 12.5135
-7.94221 14.751 12.3538
-7.89826 13.9075 11.6426
-8.13316 13.5474 11.4071
-7.95876 14.0678 11.8334
-8.43869 11.0613 9.49329
-8.48901 9.49873 7.97582
-8.74576 8.62979 7.35679
-8.99736 6.69167 5.98554
-9.14845 5.19431 5.61985
-9.35833 4.20695 4.49989
-9.46702 3.40604 4.56283
-6.6022 3.27874 2.94306
-8.58197 2.88072 3.47802
-5.10382 2.35637 1.88788
-6.45377 1.55586 2.38838
-6.89579 0.98306 2.55596
-9.3427 1.0366 3.18986
-9.76163 1.10639 3.11482
-7.58815 0.413553 2.68307
-9.84357 0.675365 2.97369
-9.45537 0.113275 3.15768
-6.19054 0.978659 1.71967
-10.0298 -0.911684 2.49349
-9.65274 -1.674 3.02233
-10.0594 -1.15378 2.43024
-9.70591 -1.90505 2.99167
-10.2074 -2.80624 3.00604
-10.3092 -3.58509 2.90007
-10.3156 -3.30816 1.96628
-6.00455 -1.23722 1.41545
-10.3814 -4.14019 2.83427
-10.3889 -3.92795 1.86067
-10.4521 -5.0028 2.73102
-10.5716 -5.9832 2.6502
-5.75038 -2.0785 1.00875
-5.43762 -2.1111 1.09122
-10.7074 -6.89731 1.46846
-10.7384 -7.27528 2.17848
-10.7559 -7.47479 2.55832
-10.7852 -7.3714 1.42862
-10.7923 -7.70471 2.15179
-10.8066 -7.89147 2.53935
-3.31348 -1.35867 0.304245
-11.3761 -12.75 1.53169
-6.73911 -6.45567 1.40272
-11.4755 -13.5524 1.51255
-11.4125 -13.3578 2.43351
-11.4798 -14.0813 2.43255
-8.49061 -10.2056 1.7619
-8.13489 -10.3051 1.33195
-7.93863 -10.538 1.28793
-7.72305 -10.0055 1.58092
-12.045 -18.3242 1.99004
-12.2556 -20.0666 1.46552
-12.1585 -19.4994 1.99972
-8.0714 -14.7011 0.922991
-8.30075 -14.7307 1.33909
-8.1572 -14.7526 1.6961
-5.94608 -15.4121 0.368069
-3.67693 -7.20652 0.579041
-6.02487 -14.8967 1.03665
-5.08217 -15.276 0.33239
-5.63534 -14.8396 0.993683
-5.97 -14.853 1.34172
-5.09062 -15.3907 0.65307
-5.47581 -15.552 0.999721
-4.68007 -15.2889 0.628646
-5.30607 -14.9956 1.25966
-4.30155 -15.2963 0.613268
-5.02109 -15.2389 1.23356
-3.59431 -15.763 0.320845
-4.3504 -15.5523 0.912718
-4.76011 -15.6285 1.22467
-3.3762 -16.8922 0.348073
-3.75059 -16.4013 0.632394
-4.40433 -15.6379 1.18839
-3.4068 -16.7044 0.636139
-3.82692 -16.6865 0.929597
-3.66399 -21.3406 0.795845
-3.93037 -16.8951 1.20696
-4.3973 -26.0006 1.35516
-3.58637 -17.0827 1.18854
-4.72426 -27.3076 1.79614
2.21101 -24.5454 1.01004
2.88239 -25.4811 1.13035
3.3532 -24.6728 1.18327
4.64765 -25.6356 1.41604
3.52845 -24.4265 1.39911
2.75151 -24.751 1.49377
4.63959 -22.6778 1.3571
4.03333 -24.1756 1.4569
5.28154 -23.1804 1.48994
4.76608 -25.1822 1.59584
3.72034 -24.0014 1.55293
5.80634 -23.097 1.5948
4.92681 -23.2116 1.56214
4.43315 -25.0152 1.67748
3.53674 -24.775 1.65443
6.33437 -23.0448 1.70262
5.45936 -23.2089 1.65204
6.97104 -23.3633 1.84586
4.23922 -22.7079 1.60527
6.17919 -18.9936 1.63403
6.75631 -24.0357 1.9021
5.86182 -23.96 1.82143
6.56675 -18.7607 1.72538
5.85715 -19.0586 1.62269
6.83563 -18.2077 1.7898
6.87832 -23.6708 1.96445
6.02976 -19.022 1.68314
10.1476 -22.7558 2.65767
10.547 -22.3528 2.77773
10.8773 -21.817 2.88605
11.1618 -21.2295 2.98626
10.1966 -22.8111 2.4345
13.4934 -15.4153 4.13448
13.9526 -15.318 4.33443
13.4048 -14.0285 4.22927
9.25175 -8.72974 2.98953
9.69142 -9.05062 2.94941
13.3577 -13.9866 3.68569
13.7058 -15.2773 3.39017
13.4017 -13.4106 3.74476
13.3601 -14.1725 3.34561
13.4175 -12.8322 3.79885
13.3867 -13.5511 3.39446
13.3504 -12.8967 3.42796
10.3511 -8.26928 2.78975
11.6454 -7.59793 4.29238
11.0735 -7.62112 3.72151
13.4946 -10.2482 4.1056
10.4833 -7.98055 2.86963
13.6397 -9.89674 4.20946
10.7949 -7.85948 2.99851
13.6342 -9.90731 3.82704
7.98037 -3.48659 2.97628
8.10036 -4.02622 2.46356
8.62145 -3.91257 2.96456
10.0724 -4.06595 4.22454
9.21114 -3.71196 2.99588
13.9022 -4.37272 6.36517
13.8604 -4.82915 5.30699
13.6469 -4.923 4.73449
13.6955 -3.37657 6.58257
13.7703 -3.28811 6.17134
12.05 -2.2145 6.00503
12.5323 -2.53088 5.72816
12.1075 -1.94655 5.27763
12.0657 -1.72591 4.90681
11.1058 -0.512087 6.12635
13.0526 -1.03098 6.62263
12.6696 -0.996531 5.94631
12.3155 -0.299001 7.009
12.7423 -0.455505 6.21625
12.4371 -0.100871 6.67305
12.188 0.208196 7.17995
11.9452 0.484006 7.16534
12.2889 0.692443 6.97314
13.8184 1.18886 7.06716
9.98987 1.74654 6.58576
9.75286 2.15142 6.67575
14.1151 2.44016 9.74684
14.0938 2.54795 9.14175
14.1563 2.7288 9.95775
14.2311 3.6167 10.6088
14.1794 4.09162 10.2055
14.1539 4.21333 10.9824
14.1561 4.52254 11.2123
14.2295 4.74514 10.6987
14.2518 4.85269 11.5205
14.1841 5.06515 10.9062
14.3142 5.18571 11.8119
14.16 5.39585 11.1404
14.5174 5.70689 10.8848
14.1666 5.73721 11.4038
14.965 7.05967 12.9263
14.386 7.2507 12.7468
14.4194 7.58127 12.293
14.4274 7.65158 13.1083
7.14617 5.11397 6.403
5.06188 4.58912 4.59419
5.59254 4.5213 5.72609
5.45048 4.62063 5.72902
14.5497 9.35576 13.8738
14.5038 9.78516 13.4457
14.4674 9.30031 15.4248
5.26925 5.04555 5.6872
4.39808 5.07383 4.98127
4.90377 5.16579 5.91573
4.21296 4.95076 5.04016
3.72082 4.96115 4.55932
3.99157 5.34528 4.80158
4.08519 5.19449 5.21433
3.96827 5.07592 5.30371
3.33644 6.68411 6.74174
-8.10755 10.6876 12.5867
-8.23342 10.3345 12.2746
-8.50092 10.3006 12.2287
-8.08273 11.5612 13.0445
-8.22209 10.587 12.2495
-8.09581 11.0535 12.4765
-8.47853 9.12583 10.7977
-8.6499 8.41802 10.3725
-8.63764 7.57256 9.75552
-8.73615 7.32371 9.5835
-8.93689 5.79082 7.84703
-9.31281 3.66438 6.4379
-9.45453 3.33714 5.95809
-11.883 3.39471 7.38702
-9.12697 2.89627 5.49079
-7.12685 0.651857 3.47708
-7.1582 0.350904 3.38848
-9.99276 -1.69759 4.43106
-6.77537 -0.564939 2.90533
-6.11205 -0.338875 2.36001
-5.24034 -0.93653 2.44442
-7.53676 -2.74887 3.57223
-6.11689 -1.84178 2.59184
-8.71068 -3.9884 4.1249
-8.82343 -4.30412 4.16663
-6.50554 -2.71163 3.00946
-6.30479 -2.72493 2.90313
-5.8771 -1.93155 1.99835
-5.43776 -2.12378 2.23449
-6.00385 -2.78035 2.48018
-9.77404 -6.42189 4.59104
-8.88237 -5.88508 4.15212
-5.83893 -2.65327 1.93489
-5.14434 -2.52248 2.09167
-9.6004 -10.1911 4.65717
-5.98943 -5.34042 2.01573
-6.70351 -6.51516 2.88602
-7.14401 -7.48178 3.11624
-6.47559 -6.63309 3.12497
-8.62561 -9.9258 3.43145
-8.45303 -9.79632 3.76262
-9.12257 -10.8996 4.53383
-8.36593 -10.048 3.36419
-8.66934 -10.6956 4.34496
-9.76303 -12.8054 4.01443
-6.07611 -6.99541 2.71775
-6.74536 -8.10681 3.37336
-5.87562 -7.0454 2.66094
-7.54565 -9.84184 3.85085
-6.92013 -9.28421 2.56551
-6.44487 -8.4154 3.3064
-8.22508 -12.1449 3.53891
-7.70093 -11.1667 3.67674
-7.39174 -11.2389 3.23253
-7.24894 -10.9098 3.5205
-8.60235 -13.36 4.64003
-7.16381 -11.3379 3.55152
-6.84943 -10.5883 3.71982
-5.97486 -9.63243 2.71391
-7.74953 -13.1885 3.95407
-5.49772 -8.37962 3.00049
-6.6785 -11.6065 3.46832
-5.35375 -8.54618 2.98283
-5.45836 -9.7109 2.62161
-6.62648 -13.2396 3.34529
-5.14183 -9.35494 2.78186
-7.21327 -13.947 4.32102
-5.30182 -10.6913 2.73659
-4.91699 -9.40469 2.74198
-5.27722 -11.4066 2.84329
-4.45185 -9.45267 2.65851
-4.00276 -9.24936 2.31806
-3.75461 -8.72944 2.41468
-3.91011 -8.70631 2.64806
-5.32882 -16.8698 3.41227
-4.93903 -16.9449 3.4028
-4.93705 -15.649 3.51035
-4.71557 -12.9125 3.57089
-4.59832 -15.7464 3.49788
-4.07434 -16.6544 3.32232
-4.29676 -16.0262 3.52604
-4.0377 -16.5539 3.60576
0.680241 -17.5533 3.91937
1.04674 -17.5001 3.94936
1.84525 -16.1252 3.70348
1.27966 -15.9623 3.682
0.881843 -17.5463 4.05153
2.42277 -17.7081 4.10208
1.23808 -17.4916 4.06778
1.47369 -16.2103 3.83174
3.87779 -21.4834 5.08836
2.25856 -15.6372 3.76453
4.41766 -21.8638 5.28253
2.78023 -16.7285 4.06206
2.04673 -15.4332 3.7404
4.01877 -21.4471 5.17096
3.51744 -14.1004 3.73217
4.64527 -22.2952 5.45205
4.02487 -14.8124 3.98998
3.29674 -14.1611 3.69528
3.79719 -14.9159 3.94219
4.36378 -13.6679 3.90619
4.54611 -13.2263 3.89707
5.00239 -22.3697 5.42483
4.29876 -15.1032 4.04887
4.74782 -19.3232 4.8049
5.17847 -13.2234 4.1098
4.97708 -18.6087 4.70284
6.24106 -15.166 4.76183
4.38688 -15.0189 3.93794
6.32727 -13.6408 4.59074
4.59754 -13.5281 3.70548
6.67718 -13.6625 4.73187
8.07308 -18.642 5.76213
6.32795 -13.5202 4.44773
5.08215 -13.0925 3.72793
7.28892 -13.4841 4.96521
6.63502 -13.4489 4.54746
6.74541 -15.0773 4.65623
6.26732 -15.3829 4.3741
7.79425 -13.7869 5.21712
6.40625 -13.4446 4.31088
6.62405 -15.3482 4.45146
10.0206 -17.2675 6.5627
6.69188 -13.3245 4.38325
10.3455 -18.626 6.58477
7.01613 -13.2855 4.48034
10.5997 -18.7829 6.41121
10.921 -18.4713 6.49041
7.33684 -12.9234 4.28297
7.82012 -8.62788 4.86853
8.03595 -8.5243 4.98909
8.34483 -8.5299 5.17011
7.56784 -7.45661 4.42554
7.75557 -6.81781 4.82683
7.74361 -7.32331 4.51892
7.4639 -7.47661 4.09924
7.55564 -7.68743 3.84818
10.3935 -8.56717 6.44876
9.21806 -7.90889 5.34933
8.51606 -7.62347 4.62566
10.3983 -8.21332 6.47361
8.4346 -7.18525 4.58278
8.1619 -7.29218 4.10479
8.72114 -6.30649 5.48322
8.5563 -6.97436 4.6475
8.60415 -7.41 4.31416
9.2405 -6.65088 5.03277
8.41958 -4.97944 5.40672
9.34995 -6.40779 4.70393
9.14594 -4.79767 5.96921
6.93797 -3.61618 3.88271
7.26855 -3.65357 4.08204
8.63324 -4.90317 4.41052
9.58089 -5.34251 4.90511
8.62033 -3.52635 5.80998
8.52206 -3.6701 5.27273
8.09996 -3.48894 4.25598
9.38305 -3.92244 5.40621
7.82916 -2.46118 5.43399
9.21064 -3.41275 5.82559
10.9631 -4.61602 6.33932
13.0043 -5.07237 8.96515
9.41614 -3.30176 6.00465
10.3985 -4.14506 5.55873
11.8487 -4.24405 7.0291
11.2546 -3.52768 7.34521
10.351 -2.72845 7.46562
11.4425 -3.35708 7.54194
8.65771 -1.58939 6.41377
11.231 -2.75417 7.56626
9.93366 -1.706 7.48779
11.397 -2.38848 7.22805
9.85068 -1.47415 7.51074
10.1501 -1.20114 7.27355
11.4691 -1.64903 6.95512
9.49541 -0.585472 7.60291
10.723 -0.933103 7.87232
10.2459 -0.804805 6.95481
10.5263 -0.86445 6.5862
9.94322 -0.510674 7.41291
10.6097 -0.674456 7.29765
11.2275 -0.591306 7.82107
8.6016 0.171557 7.18064
9.11346 0.238051 7.69485
8.46874 0.53343 7.26507
9.57372 0.478436 6.50068
9.53494 0.526062 8.26009
9.29655 0.617149 7.45529
8.61806 0.84548 7.59589
8.39878 1.04249 7.51633
9.97898 0.990962 7.65855
9.6994 1.07019 8.76392
8.03297 1.40651 7.41865
9.22518 1.47484 7.34473
9.38576 1.47494 8.7479
9.26949 1.66846 8.77551
14.1211 1.91549 10.7748
9.2401 2.04216 9.03032
14.3111 2.4869 13.1394
14.6066 3.18327 15.0731
14.5849 3.43687 14.1486
14.3647 3.65116 13.1456
14.2998 3.89843 12.3667
14.3479 3.46448 15.0758
14.3857 3.73893 14.2343
14.4299 4.06676 14.559
14.3759 4.72177 15.1095
14.4547 5.03205 14.4192
14.3311 5.05195 15.3823
14.5115 5.08042 16.7458
14.3018 5.3913 15.6888
14.5083 5.76654 15.1519
14.5405 6.54309 17.0605
14.4079 7.29402 15.5627
14.5955 7.35467 16.8324
-8.62889 6.42675 12.1095
-8.71414 6.18278 11.9007
-8.78616 5.9407 11.6896
-8.63698 7.16226 12.1196
-8.66741 6.88124 11.787
-8.763 6.17999 11.4849
-8.84024 5.94627 11.2784
-8.69133 7.0787 11.5122
-8.72356 6.80823 11.1961
-8.80531 6.12256 10.9739
-8.77285 6.55356 10.9181
-8.86372 5.89024 10.7499
-4.19762 2.99754 4.4207
-8.99198 5.86609 10.2668
-4.38609 2.93893 4.54976
-4.53299 3.09073 4.57736
-4.5715 2.77379 4.58301
-3.65678 3.2811 3.59935
-9.10676 3.925 9.42697
-5.39071 2.77951 5.38297
-9.2383 4.36192 9.43155
-4.62984 2.58481 4.48652
-3.78959 2.91011 3.54602
-5.85055 2.99783 5.67461
-3.45377 2.96821 3.13001
-4.36846 2.37745 4.07127
-3.85444 2.75885 3.46235
-3.25606 2.18381 2.84456
-3.91413 2.37262 3.40517
-9.10632 3.6419 8.11418
-5.6637 2.92635 4.80384
-4.09493 2.46161 3.41601
-2.99729 2.19715 2.43509
-3.33447 1.93431 2.7609
-3.8696 1.82656 3.21923
-3.58713 1.94013 2.80539
-2.97179 1.8693 2.20109
-3.23433 1.53335 2.45446
-4.06572 1.95364 2.81077
-4.35729 1.55236 3.04966
-3.8626 1.4217 2.77764
-3.04627 1.41135 2.22713
-4.27575 0.923242 3.19997
-3.70748 1.4387 2.44831
-4.18529 1.4582 2.63476
-4.61612 0.558011 3.399
-3.99146 0.947893 2.70549
-4.74413 0.420263 3.47777
-6.15877 0.736122 3.84196
-6.15887 0.317339 4.01686
-4.46722 0.35836 3.21348
-3.45561 0.926861 2.24167
-5.85878 0.44625 3.50543
-4.12954 0.344322 2.91349
-3.66262 0.70404 2.3575
-6.49864 -0.911662 4.73513
-5.74197 0.23986 3.35257
-6.24954 -1.04564 4.49945
-6.60912 -1.37841 4.75668
-5.9225 -0.209982 3.36045
-6.57434 -0.782298 4.03925
-6.58334 -0.635941 3.72752
-6.54771 -1.62526 4.67681
-4.94448 -0.233854 2.93244
-4.23553 -0.0741041 2.67508
-4.97797 -0.778237 3.47402
-7.05579 -1.17342 3.94684
-6.4476 -1.02519 3.5585
-3.95721 -0.305011 2.68788
-5.24901 -0.528611 2.83369
-8.08937 -2.83605 5.30037
-5.77604 -1.67198 4.05326
-5.03585 -0.991316 3.18758
-6.06202 -2.01426 4.26316
-4.30294 -0.399004 2.45472
-4.99001 -1.07936 3.14846
-5.89224 -2.03153 4.13165
-4.74245 -0.798892 2.72292
-6.9136 -2.58884 4.45927
-7.18147 -2.31529 3.87936
-7.12135 -3.31252 5.05435
-4.75768 -1.05368 2.71875
-5.61138 -1.93809 3.56217
-5.24061 -1.92839 3.64313
-5.14797 -1.2659 2.69842
-5.5878 -2.06744 3.54513
-5.70435 -2.05217 3.30235
-5.4139 -2.07481 3.42774
-5.22195 -2.18571 3.63741
-6.48846 -2.59091 3.44874
-8.22347 -4.26385 4.87148
-9.08034 -4.86745 4.91565
-9.02433 -5.10557 4.88516
-5.40211 -2.52979 3.4382
-5.13045 -2.53278 3.59563
-8.9081 -5.29788 4.82494
-5.90233 -2.91082 3.44062
-4.70928 -2.17643 2.9812
-8.82213 -5.82689 4.80065
-5.0214 -4.14281 3.74025
-9.00623 -9.00803 5.2306
-4.04587 -2.85682 2.70161
-8.21484 -8.79742 6.38465
-7.66304 -7.66354 4.47453
-4.1346 -3.03477 2.5407
-3.94698 -2.90007 2.66097
-5.04033 -4.59876 3.8357
-8.13936 -9.18401 5.87815
-7.51215 -8.28067 4.52356
-6.80575 -7.40205 4.48799
-7.96982 -9.34873 5.83237
-6.73773 -7.68078 5.36452
-7.17214 -8.20948 4.38762
-7.15222 -8.50314 5.284
-5.82852 -6.62548 3.94024
-3.73352 -3.35222 2.65586
-6.39277 -7.81562 5.2185
-6.9423 -9.11349 5.78561
-5.92125 -7.47929 3.81866
-5.38427 -6.9493 3.53637
-5.19472 -6.70063 4.04316
-8.37858 -13.0427 5.81552
-5.53546 -7.66766 4.07388
-5.18191 -7.04281 4.12386
-3.36322 -3.59648 2.77032
-5.83765 -8.70917 4.42824
-4.79709 -6.66595 3.88282
-5.22252 -7.99263 3.74211
-4.94394 -7.35077 4.11369
-4.33609 -6.06633 3.83587
-4.99998 -8.02083 3.69509
-3.30674 -4.23706 2.70949
-4.55411 -7.53346 3.4657
-5.15444 -9.51998 4.12738
-3.13808 -4.51483 2.53863
-4.92308 -9.58955 4.10085
-4.59161 -9.37817 3.98142
-2.94725 -4.61707 2.70305
-3.90576 -8.11205 3.50349
-3.76838 -7.43906 3.52757
-4.96281 -12.0248 4.80725
-4.22944 -9.38006 4.19988
-4.38884 -11.1015 4.45414
-3.51963 -7.5431 3.73914
-3.29524 -8.20201 3.44827
-3.41234 -7.77313 3.78494
-3.1767 -8.01229 3.59307
-2.69198 -5.91638 3.03789
-2.97437 -8.5936 3.53762
-3.11481 -7.48888 3.82578
-2.71613 -8.38908 3.45523
-2.85273 -8.26479 3.62795
-2.89293 -7.85461 3.70223
-3.20176 -9.1326 4.38048
-2.76386 -9.84717 4.33869
-1.81627 -4.52621 2.52442
-2.67761 -9.33829 4.32612
0.717745 -17.8146 6.88899
1.06438 -17.6766 6.90818
0.583894 -18.7902 7.29668
0.891199 -17.9152 7.03311
0.421363 -18.8261 7.36744
1.72038 -17.1947 6.88839
1.23063 -17.8013 7.04395
2.06628 -17.194 6.97264
2.05888 -14.7353 6.15897
2.02818 -18.7187 7.48906
1.33714 -17.1601 6.85459
2.70341 -16.8526 7.02925
3.03278 -16.7983 7.10684
3.64452 -18.1702 7.73405
3.14218 -14.1383 6.28725
4.25704 -22.8853 9.35638
2.62071 -16.9283 6.93641
3.33979 -13.7237 6.22539
2.95808 -14.2736 6.20054
3.7042 -14.0245 6.44929
3.23961 -16.6849 6.96041
3.55919 -21.9539 8.59816
3.96697 -13.9012 6.50843
3.75727 -15.1744 6.71053
4.08317 -13.2872 6.36738
3.2443 -13.7793 5.99506
3.23886 -16.0932 6.57243
4.14808 -12.5721 6.18065
4.04542 -13.9467 6.40656
4.25546 -15.4605 6.7746
3.64609 -15.0579 6.28499
4.85657 -13.0362 6.62077
4.54942 -15.3681 6.81995
5.26355 -20.262 8.26401
5.45484 -13.8929 7.13385
4.90968 -15.5026 6.95847
5.18316 -12.3805 6.58989
5.43806 -14.5323 7.07105
4.61602 -13.5429 6.26451
4.53304 -14.8775 6.38826
5.51185 -12.509 6.78481
5.36208 -13.4664 6.73082
5.90045 -16.4912 7.55091
4.67894 -14.3124 6.23986
5.25376 -12.4142 6.38628
5.7149 -14.976 7.03482
5.40509 -15.5896 6.8022
5.80791 -14.3483 6.87965
5.58588 -15.1306 6.70463
8.37629 -16.8652 9.39167
6.00512 -12.8469 6.82544
5.46719 -13.8847 6.2984
7.94138 -15.1646 8.74148
8.08394 -16.8517 8.82689
5.65949 -12.4226 6.27293
5.26391 -12.5277 5.84132
5.12265 -8.83128 5.65752
7.52016 -14.8186 8.03776
8.20273 -15.5117 8.53788
8.19208 -16.7124 8.41682
5.97307 -12.806 6.12981
5.38466 -9.22188 5.60029
8.05898 -15.6106 8.06917
6.27649 -12.7878 6.22075
5.59538 -8.72631 5.5909
8.61435 -15.2346 8.20766
7.75079 -14.5146 7.18335
9.01059 -16.2715 8.09079
7.3895 -8.98662 7.15829
7.5387 -8.47027 7.198
6.86546 -6.95257 6.51253
7.22068 -7.09701 6.80671
6.85642 -6.37662 6.454
8.39097 -8.61756 7.29258
7.40112 -6.73358 6.92281
8.59079 -9.25082 6.42556
7.16373 -6.19627 6.69525
7.52856 -7.2411 6.05401
7.3515 -7.31986 5.4801
8.89359 -7.79515 8.22715
7.69685 -6.82367 6.61764
7.80819 -7.51796 5.75969
7.62328 -5.91275 7.08172
7.77739 -6.33228 6.64421
7.46351 -6.24222 5.90945
7.55058 -6.04759 5.9534
8.24972 -6.01971 7.64212
8.00212 -6.01179 6.80693
7.93401 -6.15172 6.22406
8.06975 -5.81112 6.85637
8.01678 -5.94974 6.27218
8.60677 -5.84133 7.97474
8.02584 -5.26034 6.8199
9.88105 -6.41943 9.14954
8.14248 -5.2514 6.35027
10.1879 -6.5624 8.60738
7.91442 -4.80362 6.18128
9.83432 -5.98907 8.33211
9.21056 -5.60765 7.16035
10.4703 -6.31802 8.118
7.30728 -3.49755 6.92909
7.36087 -3.60987 6.33646
7.76113 -3.97674 6.09501
7.55894 -3.55371 6.52224
7.93333 -3.91987 5.6895
6.95559 -2.89354 6.66594
7.2158 -3.11701 6.26246
7.33423 -3.24 5.80691
7.25071 -2.92347 6.96899
7.79881 -3.32016 6.77416
8.20473 -3.62515 6.49193
10.1321 -4.93905 7.25416
9.7941 -4.41042 8.47747
10.2789 -4.74713 8.10691
12.3291 -6.08014 8.81538
7.49359 -2.73425 7.26724
11.6275 -5.30646 10.063
10.2015 -4.43363 8.08666
12.33 -5.7458 8.86111
11.411 -4.90623 10.9668
9.51305 -3.56077 9.2509
14.0235 -6.13367 12.2158
9.21327 -3.35231 7.41012
8.3721 -2.71826 8.2293
11.3296 -4.32093 9.98553
8.90494 -2.95653 7.21724
10.1932 -3.46074 9.07395
12.401 -4.57881 10.0171
8.15558 -2.29825 6.09022
7.9707 -2.15313 7.95829
7.46843 -1.80486 6.18026
7.27937 -1.58688 6.65677
8.35712 -2.05428 6.937
8.30714 -1.96337 6.29909
8.52322 -2.08018 8.61202
7.27259 -1.42135 6.70274
9.63305 -2.44531 8.0224
7.72237 -1.49865 5.92373
9.84834 -2.50762 9.9788
7.80887 -1.34951 6.04283
8.54666 -1.74276 8.77489
9.01831 -1.75193 7.6609
6.74815 -0.821589 7.05497
9.28792 -1.75766 8.69885
7.13553 -0.838191 7.50701
9.22143 -1.425 7.98056
8.58408 -1.07642 6.82709
8.23228 -0.984091 7.8942
11.9226 -2.00243 9.4899
7.96314 -0.720773 7.7215
8.70845 -0.852988 7.71376
8.80036 -0.751763 7.15486
4.92919 0.336405 5.4377
8.60208 -0.445101 7.79775
8.78121 -0.350829 7.31917
5.03618 0.502734 5.65928
8.22811 -0.300561 8.22937
9.20094 -0.25901 7.75853
5.11297 0.688533 5.29536
7.95643 0.0828025 7.41354
5.83947 0.490758 6.64704
9.30035 -0.0502353 8.72972
5.97512 0.571847 6.86737
6.31336 0.634382 6.61985
8.87142 0.235394 8.45129
8.52502 0.477417 7.52105
7.19914 0.410962 8.2923
8.96191 0.594005 8.01058
5.05187 1.00114 5.99787
7.69842 0.805402 7.58197
8.3286 0.882261 7.58131
7.10055 0.711371 8.38032
7.34816 0.854879 7.95251
6.09954 1.02205 7.34189
7.27155 1.01708 7.98373
8.2909 1.06175 8.38708
6.26787 1.11814 7.62916
8.31827 1.41558 8.68334
9.31885 1.56676 9.03412
8.32068 1.59607 8.82952
4.70771 1.64379 6.06391
14.3887 1.14819 16.3883
8.82302 1.75673 9.50143
7.66008 1.75793 9.04104
14.3702 2.23251 14.5483
8.11033 1.91014 9.70614
14.3057 2.15298 15.7299
14.4662 2.56023 14.9304
8.20581 2.08247 9.98231
14.3331 2.88673 15.0975
14.4819 4.26606 16.6183
-8.96441 4.56492 12.0714
-8.92714 3.87577 12.0286
-9.09409 4.37892 11.9662
-9.03001 3.68649 11.9225
-9.06702 3.48677 11.7347
-2.79875 2.304 3.30938
-9.27527 2.5712 11.972
-3.84962 2.51228 4.50875
-4.37305 2.23964 5.2895
-9.16644 4.17105 10.8828
-3.93169 2.44152 4.53123
-4.04616 2.37054 4.59436
-3.32481 2.47092 3.55071
-4.74364 2.22737 5.2859
-2.97789 1.97944 3.24714
-3.50561 2.28463 3.5587
-3.12071 2.07526 3.21375
-3.10155 1.86036 3.31229
-3.85012 1.70552 3.78804
-2.67871 1.67054 2.64149
-2.83688 1.49433 2.74024
-4.04603 1.62561 3.61614
-3.21672 1.28604 3.10945
-4.04476 1.47727 3.51871
-3.61747 1.10544 3.5206
-3.58647 1.49246 3.03978
-3.28408 1.49391 2.71852
-2.61963 1.33048 2.39757
-3.13973 0.98362 2.89614
-3.65228 0.70739 3.41432
-4.49978 0.0095892 4.21095
-3.18298 0.448225 2.82109
-6.7654 -1.01343 5.3284
-4.84652 -0.172942 3.70243
-3.65877 0.360293 2.70233
-3.43858 0.0264654 3.04971
-6.46653 -1.13893 4.55199
-5.38217 -1.0798 4.49137
-3.4618 -0.0590606 3.06806
-4.95414 -0.661831 3.72663
-5.55553 -1.31347 4.63807
-5.08794 -1.3152 4.68543
-4.68321 -0.399767 3.18581
-5.90014 -1.25398 4.07472
-4.33628 -0.798758 3.5294
-3.36947 -0.279596 2.97076
-5.20295 -1.56137 4.30323
-6.59151 -2.17659 4.5546
-5.7885 -2.29438 4.82955
-5.4051 -2.00748 4.06425
-6.18132 -2.93685 5.19704
-3.35834 -0.658017 2.9761
-4.94363 -2.25739 4.5742
-6.33739 -3.12985 4.84015
-5.18491 -2.62491 4.83083
-4.9689 -2.07052 3.73856
-5.9731 -3.56563 5.64285
-4.20863 -1.89053 3.875
-6.73821 -4.72628 6.46537
-7.39227 -4.97964 5.79873
-3.39824 -2.12525 3.26153
-6.72241 -6.66918 5.72234
-4.38705 -3.55778 3.97059
-6.53749 -6.60188 5.14519
-4.56408 -3.89791 3.82764
-6.06843 -6.25932 4.83759
-4.55988 -4.11399 3.88405
-5.40909 -5.49733 5.11978
-4.0098 -3.47467 4.0516
-6.55947 -7.34447 5.35592
-5.58175 -5.92401 4.91799
-4.8217 -4.84532 4.58815
-5.84148 -6.64572 5.25723
-4.53591 -4.62923 4.36095
-3.21621 -2.54222 3.24486
-7.08553 -9.00683 6.06437
-3.85042 -3.7246 3.70348
-3.59505 -3.33681 3.73124
-6.29624 -8.12844 5.92879
-4.96384 -6.15358 4.35007
-5.5986 -7.28398 5.34477
-3.40082 -3.35275 3.34495
-4.41611 -5.45743 4.23177
-3.40289 -3.56302 3.41463
-3.67938 -4.38123 3.30716
-4.40877 -6.09531 4.44668
-2.70085 -2.56311 2.92794
-3.25078 -3.88044 3.69594
-2.91686 -3.62719 2.80421
-2.98117 -3.67868 3.04428
-3.21127 -4.11366 3.51816
-2.7182 -3.25474 2.9865
-2.59197 -3.07633 3.04923
-2.73993 -4.0997 2.93773
-2.48619 -3.16942 2.85887
-2.68825 -4.30347 3.00578
-2.95477 -4.82024 3.47211
-2.1489 -2.76528 2.57195
-2.42693 -4.27574 2.94431
-2.42302 -3.57716 3.15632
-2.28444 -3.93078 2.93413
-1.93864 -3.14014 2.52573
-1.86686 -2.68133 2.44225
-1.97326 -2.78025 2.63939
-1.79936 -3.28503 2.43785
-1.48018 -2.7616 2.18006
-1.25992 -2.4483 2.18282
-1.17266 -4.46337 2.92666
0.28132 -16.6009 8.68149
0.682621 -18.5718 9.63862
1.35982 -16.5294 8.89495
0.88206 -16.5897 8.75546
1.91143 -18.8157 10.0809
2.25437 -18.8443 10.1927
1.5015 -16.7663 8.9386
0.580756 -17.0454 8.68475
2.40985 -17.5148 9.64347
2.06435 -19.0288 10.0772
1.29718 -16.2909 8.56095
2.88088 -18.4854 10.2304
1.90837 -19.2646 9.98172
1.14138 -16.3664 8.36772
3.5342 -20.3249 11.2706
2.69812 -18.6776 10.0551
2.06546 -17.7154 9.29282
2.78508 -14.4499 8.41352
3.04856 -18.7603 10.1766
1.86477 -17.4405 8.86719
3.03737 -14.3549 8.46677
3.19675 -17.6863 9.73726
2.88247 -18.823 9.91026
2.20303 -17.5719 8.94237
3.60604 -15.7022 9.27691
2.87181 -16.754 8.98102
3.448 -13.8142 8.40209
2.72752 -14.3145 7.86651
3.70152 -13.7832 8.49967
3.54575 -16.9833 9.21105
3.38013 -18.6262 9.5058
3.84951 -13.3535 8.38557
3.34415 -14.6205 8.12998
3.23534 -16.1111 8.38571
4.07817 -13.2564 8.4545
4.34134 -15.7989 9.26689
3.57584 -14.409 8.09249
3.55576 -16.1445 8.44277
4.23957 -14.3474 8.616
3.50647 -14.5678 7.75628
4.61986 -13.3378 8.75862
4.40049 -13.9432 8.50749
4.14309 -14.4056 8.23756
3.68428 -14.1073 7.58957
4.57418 -13.6199 8.44178
4.18722 -13.566 7.89587
4.99458 -12.919 8.79437
4.75846 -13.3549 8.41001
6.64869 -18.0072 11.0967
4.57143 -13.0451 7.79931
6.99084 -17.97 11.2335
4.48034 -12.9416 7.27278
5.22684 -13.3382 8.14314
5.32891 -14.6055 8.15912
6.25232 -14.3388 9.47772
6.48145 -15.889 9.61414
5.48432 -14.1552 8.02351
6.54551 -14.3228 9.61868
6.81889 -15.893 9.74623
5.35546 -12.9893 7.53133
6.6275 -14.6113 9.17957
7.30472 -17.1502 9.72709
4.25579 -7.50798 6.35654
7.39026 -15.6222 9.87887
7.33026 -16.3 9.41569
4.39877 -7.43875 6.43038
7.10683 -14.2432 9.24886
7.70309 -16.3005 9.54451
4.22142 -7.12349 5.77434
4.26753 -7.59665 5.57091
8.33149 -16.8504 9.97016
4.65275 -7.24696 6.55106
7.83127 -14.9772 9.12011
4.45395 -6.87614 5.82924
4.51165 -7.30003 5.58512
6.93617 -8.54293 7.97662
5.07257 -5.45166 6.41162
7.29068 -8.69695 8.27533
6.07504 -7.10797 6.41483
6.26932 -6.9489 7.09534
6.59505 -7.5103 6.84951
7.55152 -8.95175 7.14549
7.41977 -8.18159 8.25319
7.04011 -7.77725 7.20486
6.24293 -6.2897 7.6436
7.05284 -7.45828 7.14182
6.99673 -7.06446 7.01931
8.45384 -8.92916 7.67095
8.53814 -8.61936 8.42175
7.14917 -6.95985 6.46412
6.46678 -5.83945 7.78687
6.87243 -6.30603 7.45049
6.84078 -6.27939 6.75706
7.59109 -6.88671 9.0402
6.48203 -5.60296 7.00706
6.56712 -5.45666 7.05956
7.39683 -6.33775 7.18455
6.91571 -5.59239 7.38561
8.23654 -6.80926 9.69318
7.8713 -6.2709 7.54778
7.95514 -6.15723 8.38846
7.36785 -5.49567 7.05591
7.99835 -6.07271 9.39437
8.63065 -6.55178 9.04933
8.48797 -6.30614 9.93587
9.88677 -7.45702 10.2965
8.52006 -6.05748 8.0622
11.0203 -8.20509 9.34366
6.94625 -4.63698 8.19501
9.67371 -6.96405 10.0677
10.041 -7.1392 9.42911
7.11047 -4.58965 8.37762
10.2659 -7.02059 9.62063
7.26541 -4.53166 8.55351
7.55129 -4.59543 7.92311
10.5018 -6.90489 9.82722
11.1408 -7.2316 9.39863
6.23226 -3.46156 7.39665
7.71873 -4.51955 8.09277
7.52272 -4.14952 7.90184
9.6851 -5.45497 8.21064
7.23495 -3.93826 8.5455
6.6821 -3.29871 7.06371
7.26322 -3.57535 6.89937
6.43425 -3.13628 7.65453
6.15191 -2.76493 7.35041
8.15721 -4.00798 8.58103
8.43033 -3.9905 8.87783
10.2768 -5.38073 12.0843
11.6969 -5.34301 9.98858
6.12531 -2.30726 7.37995
7.12852 -2.7315 7.60869
13.9949 -6.40324 11.952
6.86137 -2.65082 8.24891
6.96938 -2.40988 8.43936
7.97842 -2.71543 8.58422
9.74377 -3.42718 9.41694
11.1149 -3.8488 9.71259
7.9012 -2.48917 8.54823
8.58345 -2.58498 8.38073
6.44533 -1.80313 7.90412
7.66912 -2.18597 8.35294
6.81577 -1.8697 8.37675
8.44708 -2.12068 8.36096
7.99604 -2.19167 9.86757
6.93098 -1.06968 7.02343
9.67111 -1.94392 8.83027
4.46073 -0.269681 5.71668
9.32808 -2.0624 10.4306
7.21787 -0.871862 7.42626
8.60859 -1.11659 8.04753
6.40032 -0.659762 7.32874
4.48819 0.000861168 5.8639
6.81534 -0.685322 7.84596
4.59709 0.048892 6.04009
6.94414 -0.589366 8.05618
8.0977 -0.384547 7.84498
4.52384 0.173158 5.99629
5.04256 0.438509 6.12686
5.06896 0.536542 6.22063
8.67591 0.206729 8.82635
4.99138 0.664229 6.1978
5.47009 0.762346 6.91086
6.41612 0.838001 7.43048
7.57611 0.94066 8.09856
6.07205 0.874068 7.81605
6.24602 0.970476 8.13181
6.7631 1.20628 8.15474
8.56259 1.3574 9.56222
7.47317 0.910238 9.77615
7.77958 1.57692 9.77441
7.78275 2.29909 9.56433
-2.60201 2.75285 3.25359
-9.05033 3.70849 11.499
-9.21059 1.83855 11.8577
-2.49445 1.80384 2.60557
-2.84739 1.39296 3.16353
-3.6543 0.795186 3.99853
-3.06919 0.72939 3.16404
-2.97837 0.726085 3.04245
-2.90476 0.716895 2.94087
-4.73111 -0.133757 4.51535
-3.85699 -0.0170043 3.9998
-2.95065 0.379575 2.92691
-5.93635 -2.36629 5.02313
-2.9894 -0.178426 2.93061
-5.98362 -2.56084 5.07151
-5.73605 -2.71496 4.42559
-4.56448 -1.98662 4.71267
-4.76008 -2.30665 4.44858
-6.13966 -4.06008 5.90305
-6.98068 -7.33247 6.21107
-4.374 -3.57107 4.05612
-3.10685 -1.73761 3.25211
-2.97749 -1.66636 3.12407
-4.47154 -4.20021 3.98773
-4.83682 -4.62396 5.02119
-4.44168 -4.39731 4.03759
-3.91823 -3.41914 4.03862
-4.32406 -4.71716 4.09409
-2.96759 -2.14018 3.24199
-4.94229 -6.1015 4.85078
-4.28496 -5.84749 4.50109
-3.85883 -5.2948 4.1337
-2.7103 -2.55719 3.00589
-4.50649 -7.06308 5.06239
-3.43962 -4.24776 4.03607
-2.86097 -3.7127 3.53122
-2.83994 -4.19727 3.5424
-2.44926 -2.72109 3.07442
-2.4971 -3.0352 3.22277
-2.09226 -2.42865 2.75292
-1.8398 -2.43698 2.54628
-1.62006 -4.61984 3.43088
-1.67345 -4.14148 3.27386
1.07559 -18.0935 10.5734
1.71468 -18.3567 10.8698
1.23961 -17.9402 10.2472
2.00947 -18.2148 10.8809
1.57238 -18.1649 10.4107
1.14954 -18.0665 9.99218
0.643027 -16.3487 8.78474
1.48972 -18.2657 10.1102
2.62383 -18.1862 11.0564
2.54787 -18.3187 10.6705
1.82538 -18.8634 9.96152
2.39303 -15.3054 9.15408
2.11707 -18.3609 9.72784
2.65275 -15.2092 9.16987
2.352 -15.2997 8.75419
3.67651 -17.2978 10.9986
3.24286 -14.0232 9.23963
3.24495 -15.4022 9.42051
3.0975 -16.2016 9.30423
3.63576 -14.6198 9.69198
3.52726 -15.4064 9.50462
3.53521 -13.2087 8.97665
3.84663 -13.4823 9.24827
3.98489 -14.9593 9.43865
4.14518 -13.6762 9.47981
4.10849 -14.3826 9.21186
4.35877 -13.5648 9.53394
4.10194 -13.4102 8.7606
3.99696 -14.5752 8.1671
4.63719 -13.6576 9.71814
4.64419 -14.0699 8.68478
4.45002 -13.0652 7.60167
4.6885 -12.9087 7.59397
5.93962 -15.6139 9.05573
7.79296 -19.631 11.2338
3.74766 -7.80195 6.652
8.0748 -19.2406 11.1608
7.22181 -16.142 9.65674
4.10907 -7.49282 6.76006
8.42132 -17.1041 10.4465
5.05437 -9.10944 8.0313
7.31861 -13.9371 8.85164
4.5308 -7.28018 6.3533
4.9438 -8.03573 5.77023
5.1313 -7.95643 5.82381
6.09966 -7.04919 6.65406
5.9002 -6.66395 7.07251
6.53391 -7.10536 6.29757
4.96615 -5.36102 6.69649
5.80981 -6.29152 7.69433
7.70272 -8.17912 8.01723
7.34623 -7.3886 7.58356
6.91901 -6.55732 7.09636
6.83422 -6.86131 8.77646
7.01525 -6.82373 8.94079
6.71444 -6.06081 7.5799
6.8744 -5.93345 6.94213
7.21838 -6.80353 9.13293
6.83692 -5.94069 7.66209
7.28571 -5.82978 7.24698
7.73823 -5.96148 6.87908
5.61667 -4.33386 7.09329
8.21352 -6.61169 8.99481
8.15903 -6.15206 8.00145
8.02799 -5.66138 7.06458
7.8715 -6.51372 9.7411
7.95718 -5.31745 6.98232
8.26897 -6.12661 8.99077
9.72079 -7.01803 9.41074
8.4828 -6.6319 10.3997
8.56233 -6.13821 9.27221
7.64101 -4.64403 7.43518
6.94886 -4.70144 8.55106
9.48986 -5.46164 8.23505
6.06107 -3.52692 7.48625
7.57462 -4.32595 8.20062
6.95016 -3.23574 6.7912
9.94106 -5.70681 10.6591
10.6801 -5.14222 9.29709
5.55514 -2.62994 6.88429
9.45305 -3.58135 9.28528
7.16653 -2.49804 7.8848
7.30112 -2.23142 8.09106
8.01561 -2.45056 8.89004
7.33836 -1.91155 8.21058
6.9209 -2.05938 8.64857
9.85791 -2.41678 10.0291
8.81658 -2.28986 9.90702
8.22732 -1.05638 7.82509
8.0218 -2.33727 10.0435
7.95434 -0.412734 7.82517
7.02656 -0.656135 8.26575
6.24317 -0.709952 8.12544
6.87747 0.279729 8.58504
5.41918 0.883591 7.00759
-9.00484 4.5095 12.0477
-4.61713 2.78011 5.24763
-4.75127 2.41657 5.52225
-9.23969 2.31347 11.9574
-4.68914 1.50487 4.12368
-3.87745 0.464424 3.46869
-4.89308 0.0602357 3.66228
-8.43098 -2.283 6.38454
-7.80999 -2.12115 5.86397
-9.98348 -3.59062 7.55051
-4.71422 -0.65416 4.11346
-7.00383 -2.19865 5.68601
-7.19096 -2.82656 5.80705
-6.16385 -2.38626 4.9207
-6.7266 -3.38769 4.9516
-5.67295 -2.60045 4.51498
-6.73141 -3.92701 5.44825
-7.70831 -5.44991 5.85263
-3.66144 -1.22793 2.83279
-3.35958 -1.06574 2.80804
-7.0258 -6.98145 6.17622
-5.96534 -6.3883 5.07294
-6.21048 -7.44604 5.4993
-5.36834 -6.02844 4.98082
-6.53096 -8.77298 6.05468
-5.67607 -7.54411 5.5959
-3.48193 -4.0976 3.28874
-3.57632 -3.95945 3.45069
-2.45052 -4.22149 3.18033
0.441762 -17.0348 8.6198
-0.205815 -20.3567 9.31658
1.4451 -22.2829 11.0532
0.760664 -17.2663 8.38626
0.454915 -17.2794 7.98193
1.09101 -17.3055 8.40949
0.767487 -16.7803 7.75908
1.26543 -18.8689 8.60523
2.03797 -17.4583 8.98126
1.65181 -16.3942 8.04501
1.52986 -17.7042 8.1217
1.84714 -17.3647 7.98397
2.15399 -17.0187 7.84879
2.82306 -16.434 8.66817
2.79145 -17.5261 8.63234
2.50648 -17.0298 7.86794
3.53834 -18.6031 9.75498
2.37222 -14.1315 6.69041
2.60519 -13.7582 6.55899
3.18769 -13.6948 6.59517
3.73813 -13.9247 7.81191
3.89407 -13.4894 7.67514
3.84111 -13.5902 7.18251
4.13717 -13.6069 7.25501
4.19316 -13.9998 6.86558
5.47027 -16.7509 10.2632
6.14966 -17.8933 11.0247
5.10261 -14.7597 7.95216
6.32068 -17.4279 10.9088
6.62393 -18.2365 10.4861
4.80368 -12.9478 7.17617
5.17899 -13.1762 7.37489
7.12742 -17.834 11.4454
7.42228 -17.7202 11.5423
6.04486 -13.8211 7.89186
7.24453 -16.4469 10.9598
7.72766 -17.0394 9.62557
6.8137 -14.3261 9.07748
7.88798 -16.5102 9.50085
7.98076 -15.0761 9.05132
5.41104 -9.01044 5.47044
7.42873 -8.62751 6.92459
13.6958 -15.762 11.0339
6.59821 -7.23528 6.75067
8.34791 -9.04259 7.55859
8.54456 -8.77935 6.90149
8.5808 -8.93046 7.68078
7.48418 -7.12214 6.01842
7.60742 -6.91462 6.05758
7.07996 -6.91172 7.0097
8.02358 -6.04412 6.21588
9.53791 -7.15757 7.31472
6.43782 -5.41575 6.97968
9.94967 -6.16146 7.56817
10.5326 -6.29105 7.99931
9.85715 -6.73016 9.17039
9.92177 -6.11373 8.33904
8.03951 -4.11295 6.16962
10.0886 -7.17649 10.4449
7.48935 -4.64494 7.82567
11.3697 -5.57465 8.69153
10.5127 -4.42598 8.12204
8.98527 -3.26445 7.01291
11.3286 -4.7048 9.65461
14.0639 -5.94675 11.9775
7.54856 -1.84106 6.04524
10.6753 -4.50042 10.0095
8.18221 -1.95179 6.5812
10.9791 -4.40968 10.323
8.72529 -2.48105 8.38552
8.18241 -2.68605 8.60829
9.38604 -1.96701 8.41403
14.0876 -5.03628 14.7541
7.12999 -1.01043 7.08686
14.0903 -4.72231 14.829
10.5969 -1.51135 9.81448
14.0644 -4.39592 14.8814
9.09655 0.558726 8.54945
7.82511 0.447875 7.84647
7.71297 0.958606 7.40607
8.54138 1.2178 8.43087
8.90461 1.57602 9.07464
7.89211 1.30068 8.48549
7.09573 1.04372 8.04992
8.66542 1.41719 9.42737
14.3602 1.89631 14.9554
14.2792 2.21688 15.1501
5.97235 0.992886 7.25364
14.3793 1.60329 15.9184
6.66422 1.54967 7.90177
14.3984 1.9232 16.2094
7.80546 2.36422 9.27848
8.16751 1.97912 10.0496
-8.91818 5.42006 12.0314
-4.21658 3.11304 4.38528
-4.78434 3.13811 5.3428
-4.43054 2.93734 5.22104
-4.51572 0.686021 2.90198
-8.00832 -0.843213 5.25355
-6.51822 -0.336213 5.50274
-7.50821 -1.12431 4.77595
-7.02596 -0.871836 4.86296
-7.09527 -1.04829 4.87414
-6.72654 -1.59309 4.4464
-5.00629 -1.04539 3.17446
-6.89288 -2.49389 4.45638
-6.62267 -2.78714 3.92563
-7.79278 -3.5233 5.04468
-6.67702 -3.01537 3.95735
-5.65578 -3.2232 3.35252
-4.64951 -2.14715 3.09424
-5.7969 -3.46656 3.93326
-6.59371 -6.73635 4.52415
-5.97075 -6.62426 4.01287
-6.86804 -8.60612 4.99372
-7.37767 -8.08471 5.5698
-5.61816 -7.47606 4.06681
-7.13743 -8.09701 5.42116
-6.79113 -8.31608 5.2447
-5.46351 -8.45381 4.25791
-5.17196 -7.58909 4.07379
-4.90631 -7.19295 3.98104
-3.42759 -6.35835 3.1343
-3.94304 -8.55659 3.93415
0.417606 -19.334 6.99727
0.476553 -19.8025 6.77805
1.03912 -17.6257 6.46941
0.883034 -19.952 6.82298
1.3186 -16.9179 6.25914
0.914071 -18.6717 6.00237
2.00272 -20.2397 7.38824
1.61049 -19.0948 6.57115
1.27812 -18.2065 5.85733
1.98508 -16.9213 6.32165
1.82338 -17.4751 6.08228
1.58738 -17.3671 5.6115
2.32728 -16.9818 6.3796
2.68327 -21.3022 7.30077
1.9852 -17.5135 5.65874
3.39908 -20.339 8.13542
2.40144 -15.3236 5.86214
2.29954 -16.9847 5.5139
2.73766 -15.4599 5.95277
2.55841 -15.335 5.48601
3.0501 -15.456 5.99967
3.10015 -15.2551 5.07262
3.55372 -14.8737 5.90749
3.41725 -14.6979 5.39696
3.33805 -14.7315 4.94904
3.70794 -14.5532 5.39823
3.96 -13.9282 6.1911
4.08784 -14.5271 5.91184
4.02759 -14.5231 5.44342
3.91758 -14.2773 4.8916
5.21203 -17.3094 7.59772
4.34041 -14.4498 5.47785
6.53188 -22.3167 7.37827
5.74978 -17.9565 7.95541
4.65146 -14.3242 5.98384
5.2164 -16.2406 6.14407
4.5608 -14.1011 4.93949
4.39484 -12.6479 5.92576
5.03632 -14.5387 6.14416
4.81475 -13.8055 4.90792
5.50171 -15.1192 7.02078
5.18135 -14.0241 6.03669
5.23819 -14.1192 5.57485
5.10337 -13.6269 4.9149
5.62867 -14.6042 6.91101
6.50729 -16.6625 6.5453
5.86367 -14.1453 6.26562
6.19815 -14.8302 5.9938
5.74311 -13.4588 5.00914
5.42013 -12.5118 6.23353
6.55858 -15.0503 6.72363
7.29948 -16.6327 6.74206
6.14238 -13.555 5.1225
6.93915 -14.8373 6.1988
6.52538 -13.5942 5.2263
6.39384 -12.8018 5.54919
7.29082 -14.4345 5.61002
7.6065 -15.0073 7.06487
8.98564 -17.5409 7.46052
8.21166 -15.4979 7.40494
9.44215 -17.0545 6.7714
9.22255 -16.729 8.08181
10.3256 -17.791 7.18776
8.47501 -15.1295 8.16969
8.14215 -9.06218 5.50458
8.42366 -7.77618 5.49612
8.54043 -7.53768 5.53859
9.46229 -8.35748 6.71648
10.5293 -8.41436 6.70182
13.6526 -10.634 7.79448
9.34173 -5.61428 6.52644
9.78069 -5.3738 6.83933
10.2835 -6.21285 7.86159
11.5122 -4.31493 6.93587
11.4578 -3.97467 6.96202
8.77964 -3.40983 6.26022
12.0052 -5.91835 9.19842
11.6258 -3.1609 7.26398
8.93487 -3.46244 6.948
14.4567 4.08082 15.0934
14.2521 1.42748 15.3144
14.3183 3.80099 15.5834
14.3059 4.7664 15.6228
14.4902 4.17522 16.0914
14.5019 4.54232 16.4478
14.5221 4.91275 16.8322
7.78042 2.6222 9.2197
14.5627 4.61849 17.4291
-9.01294 5.80843 11.0613
-8.90141 5.98015 9.7087
-9.04521 5.8192 10.3366
-9.28943 3.40322 7.40797
-3.56672 1.48996 1.96132
-5.60689 0.864278 3.34688
-6.67955 0.473318 3.65317
-7.4705 0.134115 4.05321
