7.25604 -21.3159 0.095004
7.27657 -21.1104 0.217049
7.28878 -21.0518 0.153403
7.23899 -20.9853 0.0946122
7.29133 -20.9984 0.214424
7.66565 -20.7308 -0.076809
7.51496 -21.3035 0.30878
7.48682 -21.4948 0.241232
7.49407 -21.6246 0.253253
7.57982 -21.3156 0.451097
7.4001 -21.4787 0.433268
7.35206 -21.4068 0.191281
7.66851 -21.3082 0.360243
7.55499 -20.837 0.0169517
7.42952 -21.1406 0.233089
7.4217 -21.2385 0.161325
7.47866 -20.8633 -0.141461
7.71623 -20.8238 0.0643738
7.32671 -20.8121 -0.116241
7.74213 -20.818 -0.0921343
7.83901 -20.6886 -0.0967953
7.54262 -20.7275 -0.0519773
7.50626 -20.6958 0.0536822
7.33235 -20.6935 -0.109877
7.35217 -20.6986 0.217598
7.75781 -20.6956 0.0463766
7.68779 -20.536 -0.0807182
7.78023 -20.6448 0.240011
7.94707 -20.7087 0.229344
7.888 -20.5198 0.075116
7.88646 -20.7121 0.11162
8.09369 -20.5197 -0.064905
8.00745 -20.5373 0.267
8.03478 -20.6617 0.310507
7.93399 -20.5246 0.252887
7.48896 -21.0003 1.17799
7.36666 -21.4861 0.464067
7.45041 -21.5144 0.868647
7.30811 -21.694 0.676376
6.87025 -21.5121 0.478852
7.098 -21.6212 0.49783
7.42747 -21.6193 0.846359
7.48872 -21.6687 0.702395
7.37107 -21.5025 0.724566
6.91038 -21.5064 1.26718
6.90023 -21.6907 1.28964
6.87534 -21.7012 1.11588
6.89054 -21.4946 1.17358
7.20425 -21.6087 1.16763
7.06807 -21.6869 1.07733
7.07629 -21.5367 1.09842
6.86975 -21.0909 0.688367
6.83087 -21.2158 0.609484
6.73781 -21.471 0.475902
6.78121 -21.1988 0.51393
6.82457 -21.1413 0.594482
7.02315 -21.3773 0.467532
6.87488 -21.2653 0.475673
7.48456 -21.1945 0.548674
7.08379 -21.365 1.30518
7.39335 -21.3863 0.849129
7.37239 -21.4589 0.832716
7.0892 -21.4766 1.32354
7.48701 -21.0837 1.26554
7.38652 -21.2968 1.29673
7.36111 -20.7903 1.31887
7.49575 -21.3499 0.895602
7.8342 -21.4585 0.692296
7.7326 -21.4951 0.691869
7.71847 -21.4564 0.571225
7.70002 -21.6737 0.671052
7.54847 -21.3794 0.679311
7.81498 -21.6481 0.585446
7.91386 -21.6927 0.64846
7.84256 -21.5102 0.591218
7.90113 -21.6112 1.15
7.66259 -21.4715 0.867278
7.5213 -21.4864 0.708683
7.86739 -21.4833 0.901945
8.08447 -21.5408 1.09122
8.09804 -21.6771 1.16416
7.98755 -21.5302 1.06829
7.66747 -21.3394 0.865453
7.71447 -21.3066 0.689785
7.71354 -21.1318 0.51127
7.68929 -21.2973 0.495516
7.80447 -21.1033 0.529903
7.78643 -21.1579 0.834494
7.72706 -21.1745 0.732081
7.92735 -21.3291 0.71501
7.87224 -21.2919 0.926286
7.5042 -21.2828 1.28806
8.05093 -21.3442 0.911863
7.5253 -20.9501 1.29552
7.95572 -21.1606 0.875534
7.60695 -21.1722 1.18316
7.5537 -20.7619 1.32056
5.08883 -19.2897 -1.92303
4.7057 -19.8794 -2.08965
5.32358 -20.2984 -2.08041
4.90338 -20.3086 -2.08742
4.70335 -20.3197 -2.11842
4.70724 -20.5077 -2.12523
4.88757 -20.5088 -2.07876
4.69422 -20.0953 -2.10287
4.86575 -20.1167 -2.09266
4.89885 -19.9061 -2.07476
5.08767 -20.1088 -2.08247
5.11301 -20.3122 -2.0633
5.08835 -20.5012 -2.0709
5.30713 -20.5149 -2.07626
5.28603 -19.9378 -2.03455
5.27978 -20.1068 -2.09629
5.12514 -19.9196 -2.08081
5.91136 -20.2747 -1.99871
5.6998 -20.4692 -2.02639
5.50375 -20.3141 -2.0864
5.50362 -20.4701 -2.08788
5.69499 -20.286 -2.01757
5.87008 -20.3482 -2.02488
5.72154 -20.5002 -1.94074
5.73685 -20.3329 -1.9671
5.6904 -20.0779 -2.03124
5.46865 -20.0852 -2.05342
5.65055 -20.1637 -1.99892
5.46943 -19.9057 -2.02673
5.85986 -19.9657 -2.01582
5.71657 -19.9151 -2.01517
5.90374 -20.1523 -2.00787
6.49447 -20.4529 -2.00535
6.13377 -20.486 -2.03303
6.09446 -20.3326 -2.00356
5.92562 -20.4772 -2.05481
6.09117 -20.2763 -1.97506
6.28645 -20.2915 -1.99162
6.37429 -20.4774 -1.99599
6.26068 -20.5179 -2.06928
6.31462 -20.2706 -2.01623
6.07989 -19.8895 -1.9769
6.06011 -20.068 -1.99456
5.93674 -20.0928 -1.9842
6.07216 -20.1188 -2.00684
6.09011 -19.9825 -2.01048
6.26326 -19.9531 -2.00869
6.27885 -20.1069 -2.00062
6.34121 -20.1563 -1.98912
6.51459 -20.2934 -2.03717
6.7212 -20.4336 -2.0063
6.56465 -20.4731 -1.94815
6.64133 -20.5136 -1.94426
6.71008 -20.3467 -2.04155
6.84432 -20.4558 -2.00283
6.75211 -20.3073 -1.99411
6.64958 -20.0899 -2.01619
6.52639 -20.2753 -1.99347
6.52042 -20.1265 -2.04269
6.72178 -20.1341 -1.97499
6.50436 -19.913 -2.035
6.49984 -20.0404 -1.99708
6.70571 -19.8892 -2.00319
5.0644 -19.0915 -1.94285
4.687 -18.9227 -2.09112
4.69799 -19.2888 -2.09501
4.84429 -19.5245 -2.0509
4.71311 -19.7009 -2.10319
4.69431 -19.4905 -2.12399
4.88038 -19.7231 -2.03286
5.05955 -19.7528 -2.00098
5.03262 -19.4991 -2.00183
4.72682 -19.1064 -2.1151
4.9721 -19.1294 -1.98397
4.85337 -19.2807 -2.05419
5.01962 -19.1294 -2.01258
4.9 -18.9492 -2.08276
4.90521 -19.1006 -2.06345
4.94528 -18.9232 -1.99299
4.93452 -18.4998 -2.03607
4.8889 -18.5028 -1.98959
4.79355 -18.5324 -1.93621
4.70468 -18.7007 -2.0505
4.67035 -18.5035 -2.07779
4.94765 -18.7105 -1.9881
4.89182 -18.7425 -2.02648
5.00907 -18.7216 -2.01014
4.87532 -18.3336 -2.03792
4.7087 -18.3022 -2.06455
4.73586 -18.3726 -1.98489
4.85744 -18.1742 -2.03459
5.00274 -18.3872 -2.00404
5.02614 -18.4591 -2.00565
4.88873 -18.2819 -1.94324
5.52216 -19.6911 -1.92459
5.36374 -19.8793 -1.96549
5.16496 -19.8187 -1.9866
5.2725 -19.7017 -1.93494
5.65775 -19.8662 -1.96213
5.43606 -19.8773 -1.968
5.29791 -19.2979 -1.93927
5.28999 -19.5154 -2.00102
5.11704 -19.6797 -1.92868
5.31559 -19.4703 -1.92344
5.15014 -18.9524 -2.0163
5.69542 -19.2917 -1.93054
5.10908 -18.48 -1.93072
6.34784 -19.6064 -1.97127
5.91318 -19.5279 -1.92319
6.30401 -19.8408 -1.97231
6.07954 -19.7586 -1.95679
5.88228 -19.848 -1.98783
6.32992 -19.687 -2.03247
6.14444 -19.4632 -1.9719
5.87839 -19.2647 -1.93812
6.2799 -19.3003 -1.92955
6.53403 -19.6679 -2.04358
6.60632 -19.782 -2.04406
6.59679 -19.869 -1.99958
6.74143 -19.8759 -1.99983
6.45397 -19.485 -1.93655
6.48261 -19.6187 -1.93287
6.41846 -19.4478 -2.01734
6.46996 -19.2851 -1.93578
5.732 -18.9064 -1.69307
5.67453 -18.5169 -1.82106
5.66946 -18.8946 -1.88028
5.06291 -19.4543 -1.70923
4.94802 -19.6163 -1.76596
4.90121 -19.6754 -1.85289
4.94301 -19.5208 -1.90813
5.09459 -19.51 -1.90662
4.95086 -19.5204 -1.77528
5.51267 -19.5068 -1.91785
5.32255 -18.9017 -1.90185
5.13452 -18.9038 -1.92128
4.93218 -19.2608 -1.89612
5.29084 -19.0756 -1.91383
5.50099 -19.1095 -1.87088
5.48927 -19.2992 -1.89664
5.51689 -18.9085 -1.89687
5.4543 -18.3066 -1.82442
5.27278 -18.3096 -1.88309
4.70126 -18.6578 -1.87764
5.11896 -18.7308 -1.88827
5.12995 -18.298 -1.90834
5.28212 -18.5336 -1.88305
5.30082 -18.6831 -1.91463
5.43442 -18.1727 -1.81543
5.66463 -18.7125 -1.826
5.4861 -18.8398 -1.76584
5.48383 -18.7272 -1.87505
5.52769 -18.7675 -1.69482
5.5469 -18.4701 -1.79724
5.48907 -18.4959 -1.84334
5.50017 -18.3062 -1.79502
6.10198 -19.277 -1.91575
6.48991 -19.6431 -1.75346
5.79991 -19.2879 -1.79461
5.70364 -19.7104 -1.92233
5.68929 -19.493 -1.9021
6.33786 -19.6177 -1.74965
5.89499 -19.6754 -1.89729
6.30378 -19.4983 -1.90653
6.32949 -19.5163 -1.71637
6.54292 -19.5059 -1.73208
6.68594 -19.6648 -1.90501
6.6295 -19.8273 -1.72129
6.88562 -19.5095 -1.70194
6.69537 -19.311 -1.7121
6.52356 -19.3245 -1.70129
6.70053 -19.4811 -1.73971
6.49072 -19.0713 -1.74514
6.08348 -19.1041 -1.71001
5.72568 -19.11 -1.87526
5.91992 -19.2756 -1.75944
5.73129 -19.0732 -1.71397
6.29753 -19.0995 -1.70495
6.11432 -19.2763 -1.74633
6.30145 -19.2547 -1.75107
6.02308 -18.8931 -1.90295
5.93998 -19.0374 -1.87866
5.91178 -19.0576 -1.72658
5.72921 -18.5108 -1.70661
5.69531 -18.7266 -1.69834
6.4716 -18.8588 -1.71056
5.71753 -18.2806 -1.71153
6.52746 -18.887 -1.5919
6.84777 -19.2731 -1.51411
6.85882 -19.0822 -1.52536
6.69052 -19.684 -1.68793
6.07728 -20.5042 -1.67706
6.83351 -19.6863 -1.69284
6.72555 -19.1403 -1.524
6.77946 -19.2657 -1.53299
6.66995 -19.0974 -1.68567
6.2852 -18.9274 -1.66716
6.12209 -18.9031 -1.53448
5.92261 -18.8963 -1.67472
6.07276 -18.8915 -1.67223
6.17635 -19.0304 -1.592
6.56976 -19.0809 -1.54205
6.7255 -18.8966 -1.53791
5.46917 -20.5077 0.353238
5.86284 -20.5153 -0.0300084
6.17145 -20.5155 -1.12929
6.2642 -20.4873 -1.45562
5.95397 -20.5133 -1.06301
5.53951 -20.4961 0.0996096
5.29871 -20.4797 0.0903367
6.05772 -20.4636 0.294864
5.27255 -20.4809 0.472382
5.23196 -20.3487 0.394732
5.13343 -20.4667 0.475311
5.12458 -20.3148 0.472372
5.43161 -20.3491 0.444901
5.3189 -20.2847 0.448352
6.28374 -18.4859 -1.65174
5.88247 -18.497 -1.68024
6.07518 -18.6837 -1.63651
5.86902 -18.6971 -1.68543
5.88513 -18.87 -1.55698
5.89878 -18.6169 -1.593
6.25222 -18.6594 -1.66883
6.26612 -18.8757 -1.59543
6.10994 -18.6538 -1.5173
6.10124 -18.4857 -1.51309
6.07844 -18.3694 -1.6766
6.07755 -18.4718 -1.65872
5.89669 -18.2675 -1.68854
6.2636 -18.2783 -1.51414
6.12796 -18.2724 -1.5233
6.28327 -18.2997 -1.6414
6.28867 -18.5024 -1.59128
6.6903 -18.7083 -1.66861
6.47085 -18.6993 -1.65133
6.36779 -18.7138 -1.5912
6.49148 -18.5281 -1.67
6.73939 -18.6528 -1.51857
6.70206 -18.8624 -1.63952
6.7095 -18.5226 -1.67806
6.6059 -18.2256 -1.64741
6.4501 -18.3338 -1.51747
6.53984 -18.4223 -1.50964
6.45452 -18.3137 -1.64049
6.83131 -18.2449 -1.56834
6.65706 -18.4865 -1.52919
6.66684 -18.2284 -1.55103
6.74064 -18.1733 -1.63149
6.91035 -20.5177 -1.08443
7.5221 -19.5337 -1.84299
7.30377 -20.4661 -1.10731
7.08877 -20.5086 -1.95639
6.92345 -20.497 -1.98096
7.25669 -20.4934 -1.93748
6.94084 -20.2896 -1.95333
7.10737 -20.3305 -1.92592
6.8978 -20.348 -2.00068
7.0753 -20.0698 -1.94844
6.93095 -20.1068 -1.94256
7.3002 -20.4984 -1.532
7.19236 -20.4303 -1.60228
7.1745 -20.3731 -1.34602
7.28795 -20.271 -1.90568
7.27926 -20.3258 -1.7181
7.13653 -19.8609 -1.69134
7.2941 -19.8902 -1.86041
7.14073 -19.8918 -1.90309
7.26294 -19.8383 -1.75041
6.96515 -19.6443 -2.02904
7.04167 -19.8232 -2.05678
6.94367 -19.8246 -2.05378
7.06273 -19.7132 -2.07758
6.89408 -19.8377 -1.86878
6.8958 -19.7323 -1.86119
7.08404 -19.594 -1.80214
7.07827 -19.7236 -1.95951
7.10757 -19.6832 -1.68556
7.07341 -19.7313 -1.58751
6.97716 -19.8054 -1.7002
6.94761 -19.6251 -1.5726
7.09276 -19.5828 -1.66771
7.23011 -19.7809 -1.58509
7.26771 -19.8365 -1.58107
7.29027 -19.7148 -1.66821
7.90354 -20.1078 -1.85418
7.31916 -20.316 -1.53572
7.54166 -20.2979 -1.88407
7.31076 -20.1244 -1.90075
7.49208 -20.3066 -1.68385
7.68212 -20.3153 -1.89609
7.84904 -20.2954 -1.89447
7.66362 -20.2659 -1.61136
7.65611 -20.3141 -1.28753
7.50879 -20.3202 -1.52147
7.31255 -20.4765 -1.30786
7.65088 -20.2631 -1.45527
7.49437 -20.3444 -1.13064
7.3266 -20.3496 -1.12563
7.34079 -20.3415 -1.28707
7.49477 -20.3209 -1.27004
7.54725 -19.9462 -1.88927
7.51111 -20.0855 -1.89365
7.66237 -19.988 -1.90601
7.48783 -19.9518 -1.69254
7.32955 -19.5818 -1.77749
7.60151 -19.5905 -1.77131
7.55056 -19.539 -1.7913
7.48356 -19.7105 -1.66506
7.9237 -19.7737 -1.58413
7.71053 -20.1024 -1.88303
7.91114 -19.8736 -1.68512
7.76899 -19.8653 -1.72415
7.82428 -19.8548 -1.57371
7.8747 -19.695 -1.66163
7.70302 -19.7508 -1.68494
8.00577 -19.6591 -1.69001
7.08537 -18.6949 -1.68269
7.46358 -18.6999 -1.48715
7.31523 -18.9221 -1.63915
6.90613 -19.4556 -1.57169
6.90555 -19.3547 -1.69761
6.89947 -19.0092 -1.60832
7.02229 -19.2258 -1.55095
6.91439 -19.3691 -1.80786
7.46325 -19.0269 -1.65405
7.37206 -19.0171 -1.62227
7.12391 -18.8955 -1.64267
6.90601 -18.8902 -1.48616
6.89343 -18.91 -1.66297
6.91453 -18.7315 -1.62697
7.26645 -18.7027 -1.57291
7.16034 -18.8154 -1.5207
7.29985 -18.8151 -1.55675
7.85817 -19.085 -1.60703
7.65169 -18.8994 -1.65472
7.58564 -18.9111 -1.68874
7.5089 -18.8778 -1.52679
7.77832 -19.002 -1.62697
7.84132 -18.9234 -1.65405
7.7521 -18.9697 -1.55471
7.70326 -18.7179 -1.54439
8.10156 -18.9207 -1.50582
7.96478 -18.9409 -1.52478
7.898 -19.0019 -1.57098
8.04313 -19.0161 -1.58281
8.07761 -18.8171 -1.321
8.09758 -18.7839 -1.45502
8.06454 -18.7155 -1.27509
7.33308 -18.5068 -1.51895
7.20115 -18.452 -1.61329
7.0938 -18.4603 -1.56683
6.93507 -18.5713 -1.66299
6.91778 -18.644 -1.55578
6.90837 -18.5268 -1.5553
7.11013 -18.6646 -1.57101
7.26696 -18.6917 -1.64982
7.17931 -18.5028 -1.62405
7.0785 -18.1802 -1.39475
7.04898 -18.2825 -1.49815
6.92168 -18.2534 -1.66048
7.04975 -18.2382 -1.38055
7.15607 -18.2565 -1.63337
7.25673 -18.3302 -1.65965
7.31868 -18.3088 -1.48862
7.20754 -18.1963 -1.61024
7.92747 -18.4983 -1.45502
7.66928 -18.4724 -1.47473
7.50156 -18.5245 -1.48658
7.46674 -18.6672 -1.64174
7.58224 -18.5947 -1.63182
7.4887 -18.2989 -1.50351
7.87484 -18.4438 -1.3678
7.67861 -18.3211 -1.48325
7.67539 -18.5936 -1.60762
7.92076 -18.3319 -1.495
7.98678 -18.6866 -1.23805
8.10889 -18.2946 -1.52996
7.94661 -18.3216 -1.38768
8.1309 -18.4373 -1.42734
8.04185 -18.6888 -1.09716
7.97044 -18.6525 -1.11537
8.10487 -18.5731 -1.15981
7.70227 -20.0802 0.332983
7.51752 -20.4711 -0.10413
7.52831 -20.4967 -0.254121
7.32814 -20.3927 -0.69555
7.29484 -20.486 -0.898198
6.91823 -20.5035 -0.911001
7.34046 -20.3727 -0.868912
7.29652 -20.4987 -0.72723
7.47795 -20.4681 -0.902066
7.50938 -20.3572 -0.47326
7.32329 -20.3645 -0.51742
7.30549 -20.5063 -0.486519
7.5016 -20.4915 -0.653832
7.36997 -20.3616 -0.327808
7.28786 -20.4871 -0.298137
7.49148 -20.3304 -0.334415
7.64009 -20.3815 -0.505052
7.66288 -20.3316 -0.869409
7.52871 -20.35 -0.90019
7.52936 -20.4703 -1.05954
7.71953 -20.2686 -1.05739
7.55995 -20.3535 -0.682325
7.65032 -20.3293 -0.755473
7.53878 -20.4801 -0.565138
7.79706 -20.4483 -0.321366
7.54298 -20.3858 -0.159332
7.67928 -20.3012 -0.370066
7.65654 -20.3823 -0.147303
7.81553 -20.4683 -0.471795
7.80313 -20.4129 -0.279314
8.09134 -20.4999 -0.248929
7.9854 -20.3983 -0.104715
7.51771 -20.4363 0.301152
7.34213 -20.1302 0.255041
7.48678 -20.453 0.0850922
7.3338 -20.4952 -0.0965238
7.32373 -20.4776 0.113321
7.33097 -20.3511 0.094737
7.50857 -20.398 0.116281
7.27741 -20.1399 0.188569
7.49838 -20.2918 0.458863
7.30805 -20.4889 0.299051
7.3155 -20.3817 0.282872
7.45644 -20.4743 0.440463
7.4744 -20.1621 0.443567
7.48674 -20.2868 0.306585
7.48892 -20.1155 0.292899
8.08118 -20.3184 0.235835
7.92159 -20.3339 0.1481
7.72609 -20.5127 0.0793504
7.85931 -20.5091 -0.000207305
7.68602 -20.4373 0.235569
8.11414 -20.4532 0.0501662
8.1022 -20.3338 -0.0715576
8.08457 -20.3298 0.128073
8.14453 -20.102 0.176441
7.85544 -20.2662 0.518992
7.74599 -20.2985 0.474696
7.73199 -20.3046 0.323674
7.80891 -20.1706 0.491169
7.91882 -20.2769 0.243125
7.88638 -20.0999 0.295022
8.10149 -20.1026 0.308271
7.69158 -19.343 0.485721
7.69382 -19.6485 0.371161
7.37652 -19.7447 0.272453
7.61483 -19.8995 0.351934
7.38742 -19.8701 0.287666
7.48402 -19.943 0.316638
7.68542 -19.8402 0.614915
7.52967 -19.925 0.491414
7.64926 -19.7553 0.60039
7.50995 -19.5184 0.311436
7.54536 -19.7403 0.480547
7.52371 -19.6921 0.298537
7.69141 -19.6851 0.504111
7.53605 -19.5169 0.427169
7.45499 -19.3634 0.266259
7.68342 -19.3652 0.380978
7.89749 -19.7151 0.455396
7.87313 -19.8496 0.392473
7.72711 -19.8935 0.480656
7.70627 -20.0305 0.47437
7.87152 -19.9286 0.407351
8.14353 -19.9045 0.351476
8.05641 -19.8136 0.415471
8.13342 -19.7452 0.370386
7.901 -19.6378 0.380192
7.71817 -19.4703 0.362966
7.7018 -19.5069 0.458487
7.89233 -19.4215 0.375159
7.95489 -19.5058 0.436651
8.05297 -19.6934 0.563894
8.12621 -19.4427 0.440431
7.76465 -18.7731 0.220178
7.88698 -18.4645 -0.776259
7.89757 -18.5184 -0.912149
7.92465 -18.5021 -1.04219
7.8864 -18.3965 -0.859307
7.89119 -18.3004 -0.70247
7.76301 -18.3028 -0.718903
7.78317 -18.1871 -0.610434
8.05436 -18.3103 -0.738468
7.87276 -18.8335 0.0675579
7.59337 -18.9131 0.0734071
7.9236 -19.1827 0.108949
7.69423 -18.8975 0.13316
8.12957 -19.2389 0.168688
7.86943 -18.7292 0.029947
7.72187 -18.277 -0.511515
7.81153 -18.2731 -0.508833
7.77154 -18.7023 0.113931
7.90023 -19.0455 0.252447
7.48021 -19.103 0.467115
7.64972 -19.1632 0.498248
7.51703 -19.246 0.503571
7.86715 -19.2879 0.438504
7.69044 -19.0886 0.277906
7.51081 -19.0513 0.386133
7.73461 -18.8962 0.226232
7.96184 -19.1183 0.450347
8.09482 -19.28 0.319831
7.93897 -19.3293 0.33398
8.0789 -19.143 0.415623
8.046 -18.9765 0.337699
7.91185 -18.9519 0.250334
8.1085 -19.0547 0.33224
7.67549 -20.9498 1.33506
6.37057 -20.9565 2.7216
6.30559 -21.2836 2.36479
5.50111 -21.5162 1.69327
5.27813 -21.15 1.88731
5.0958 -21.5414 1.55559
4.7931 -21.2178 1.79379
5.07541 -21.4669 1.70185
4.95237 -21.5858 1.7771
4.99689 -21.5113 1.87639
4.94147 -21.3407 1.84343
4.93708 -21.2502 1.69978
5.08415 -21.2871 1.84407
4.88513 -21.1148 1.69277
4.95976 -21.2118 1.57636
4.93243 -21.1279 1.57372
5.0705 -21.1353 1.48988
4.89439 -21.0747 1.87055
4.79301 -21.179 1.732
5.09172 -21.1041 1.73968
5.10596 -21.3121 1.70567
5.28822 -21.5211 1.68894
5.24493 -21.5328 1.5528
5.10194 -21.6515 1.79299
5.2827 -21.6995 1.65987
5.27005 -21.3449 1.7063
5.49824 -21.528 1.45539
5.48407 -21.6476 1.5775
5.41742 -21.3918 1.50866
5.26662 -21.3052 1.49209
5.12855 -21.2532 1.38167
5.14276 -21.2841 1.48715
5.26236 -21.0982 1.41486
5.25036 -21.1011 1.33419
5.41924 -21.1619 1.77453
5.48837 -21.2825 1.69055
5.29096 -21.0765 1.66494
4.8888 -21.0874 2.1013
4.66914 -21.4014 2.02739
4.68387 -21.5126 1.89365
5.09294 -21.5279 1.88741
4.71563 -21.113 1.91393
4.70164 -21.2103 1.9385
5.1055 -21.0768 1.92261
4.67185 -21.2263 2.11404
4.9006 -21.2512 2.3145
4.80195 -21.2856 2.13652
5.13694 -21.6844 2.13378
4.68188 -21.3162 2.3609
4.68005 -21.121 2.30045
4.67532 -21.1166 2.10167
4.88764 -21.0563 2.32072
5.33294 -21.4429 2.01315
5.4465 -21.5679 2.12596
5.27895 -21.6889 2.07377
5.25534 -21.4615 1.90494
5.28064 -21.6822 2.28967
5.17431 -21.653 2.2928
5.29662 -21.5964 2.32881
5.48413 -21.5484 2.35336
5.43723 -21.659 2.18138
5.37828 -21.2101 2.02917
5.28856 -21.1005 2.04388
5.27527 -21.3264 1.90669
5.16841 -21.0971 2.01761
5.50104 -21.3012 2.06764
5.47739 -21.3069 1.9626
5.48181 -21.0966 1.93259
6.13025 -21.4949 1.92872
5.92254 -21.5228 1.49022
5.55222 -21.6332 1.68566
5.82728 -21.6428 1.50137
5.59201 -21.4039 1.34371
5.70078 -21.5263 1.49384
5.72354 -21.6626 1.54365
5.72001 -21.6995 1.64992
5.90326 -21.6621 1.67287
5.71723 -21.48 1.8767
5.71462 -21.5037 1.71545
5.53539 -21.5075 1.84865
5.66644 -21.3205 1.77541
5.85028 -21.3842 1.75842
5.91615 -21.4881 1.71167
5.91015 -21.4873 1.87368
5.72528 -21.3848 1.8864
6.28191 -21.3506 1.49985
6.30002 -21.4641 1.75072
6.36092 -21.6088 1.40541
6.04885 -21.5277 1.71359
6.36756 -21.3869 1.69759
6.28073 -21.6905 1.83605
6.07931 -21.7006 1.75911
6.28772 -21.4721 1.8858
6.22405 -21.0542 1.61428
6.24649 -21.042 1.5385
6.12849 -21.2428 1.55885
6.27818 -20.9776 1.4657
6.07808 -21.3343 1.9061
6.12748 -21.3369 1.75284
6.28566 -20.9927 1.64235
5.92216 -21.3287 2.25528
5.84803 -21.1311 1.96783
5.64698 -21.1989 1.99635
5.90199 -21.2764 1.93942
5.90837 -21.2732 2.10315
5.71513 -21.304 2.06773
5.90827 -21.4059 2.27654
5.70829 -20.9652 2.2744
5.58878 -21.0805 2.21601
5.50789 -21.086 2.12038
5.70498 -21.0696 2.09784
5.88922 -21.0666 2.10411
5.71979 -21.0863 2.22235
5.89348 -21.1086 2.23655
6.21733 -21.3965 2.05211
6.26889 -21.6382 2.20656
5.98463 -21.4579 2.05775
6.14619 -21.6348 2.05898
6.08576 -21.454 2.09305
6.35421 -21.4952 2.12447
6.30428 -21.6388 2.11732
6.33505 -21.4439 2.30128
6.32326 -21.0987 2.29038
6.08488 -21.3214 2.06002
6.22718 -21.3814 1.97872
6.10848 -21.2723 2.29792
6.0928 -20.9664 2.2724
6.15242 -21.0895 2.1378
6.06628 -21.0868 2.28442
5.50707 -21.253 2.75353
4.6927 -21.4847 2.71379
4.67569 -21.2716 2.55451
4.72904 -21.6891 2.67371
4.94717 -21.6926 2.52523
4.89359 -21.6932 2.70715
4.93106 -21.4774 2.71089
4.84964 -21.4897 2.58012
4.8962 -21.2839 2.68044
4.85947 -21.1196 2.69752
4.68262 -21.0565 2.50426
4.69328 -21.0966 2.68949
4.96065 -21.1437 2.49189
4.91622 -21.2138 2.42553
5.08058 -20.962 2.63162
5.12822 -21.4989 2.68868
5.31701 -21.6937 2.67606
5.09366 -21.6894 2.51181
5.1593 -21.5806 2.40718
5.1398 -21.6286 2.68273
5.44513 -21.5966 2.48404
5.36914 -21.5663 2.46913
5.50306 -21.677 2.65858
5.0944 -21.0847 2.69217
5.16276 -21.2277 2.55593
5.24278 -21.2619 2.53575
5.26531 -21.144 2.68378
5.25014 -21.0801 2.5479
5.13309 -21.0748 2.51909
5.28569 -20.9647 2.56127
5.07712 -21.2572 2.91405
4.71809 -21.3134 2.74434
4.67326 -21.5364 2.89435
4.6956 -21.2848 2.90756
4.86655 -21.2827 2.91782
5.09153 -21.5142 2.84649
4.95073 -21.5117 2.90729
5.10417 -21.5694 3.1491
4.90493 -21.0385 2.88468
4.81116 -21.2548 3.02276
4.70455 -21.1458 2.90479
4.71438 -21.1269 3.06474
4.9876 -21.1566 3.22418
4.92434 -21.0654 3.04404
5.11015 -21.0828 3.15004
5.12956 -21.3196 2.73271
5.28504 -21.6308 2.8469
5.29295 -21.5009 2.7228
5.33749 -21.3248 2.75002
5.11702 -21.3749 3.09769
5.3204 -21.5537 3.1954
5.29174 -21.5116 2.85629
5.24808 -21.3313 3.25843
5.32945 -21.0598 3.0837
5.28687 -21.1046 2.87909
5.26452 -21.2693 2.85824
5.11725 -21.0909 2.85918
5.37053 -20.9841 2.90842
5.50067 -21.1251 2.89906
5.4735 -21.0992 3.10419
5.9426 -21.5381 2.51903
5.71248 -21.2619 2.75119
5.84138 -21.4834 2.71113
5.531 -21.4951 2.70859
5.74151 -21.4878 2.68487
5.88896 -21.3401 2.48779
5.86286 -21.6345 2.69228
5.90469 -21.2928 2.68747
5.71347 -21.0586 2.72209
5.64935 -20.9993 2.55559
5.66417 -21.1073 2.52326
5.52018 -21.0494 2.74944
5.88811 -21.0818 2.54495
5.75461 -21.2457 2.45715
5.90845 -21.1091 2.73492
6.27373 -21.249 2.52075
6.12091 -21.5347 2.65657
6.04147 -21.6012 2.4925
5.96207 -21.6031 2.52166
6.05318 -21.6498 2.70414
6.24446 -21.6664 2.67811
6.1207 -21.2918 2.52826
6.07732 -21.4631 2.38008
6.08066 -21.5207 2.50428
6.13214 -21.2641 2.71044
6.25349 -21.3034 2.72538
6.13754 -21.1376 2.70989
6.08454 -21.1257 2.49048
6.10113 -20.9578 2.48664
6.05982 -20.9828 2.68449
6.31967 -21.1609 2.50936
6.35237 -20.9922 2.47415
6.28314 -21.1202 2.73122
6.07203 -20.9857 3.12862
5.59158 -21.2507 2.83388
5.68877 -21.6664 2.83354
5.57075 -21.581 2.87815
5.53184 -21.6628 2.80784
5.64833 -21.2973 2.86798
5.75378 -21.4032 2.83881
5.93923 -21.5761 2.89954
5.92293 -21.273 2.96826
5.69733 -21.115 3.05081
5.8894 -21.1286 2.9241
5.7212 -21.1005 2.8886
6.05214 -21.1094 2.92346
5.94842 -21.2224 3.15421
5.90545 -21.091 3.12654
5.8905 -21.0931 3.27676
6.24768 -21.3677 3.0847
6.10765 -21.5304 2.94923
6.15529 -21.5958 3.22105
6.15224 -21.6564 3.153
6.28897 -21.7001 3.10414
6.24275 -21.4362 3.09877
6.16397 -21.5005 3.07763
6.09778 -21.3695 3.26517
6.12545 -21.3369 3.08356
6.29464 -21.1292 2.89919
6.09859 -21.2918 2.91217
6.31373 -21.2482 2.84985
6.11378 -21.109 3.11587
6.09359 -21.1185 3.2695
6.32011 -21.094 3.12432
7.51625 -21.4808 2.1718
7.27501 -21.0996 1.49604
6.72962 -21.4272 1.71839
6.53458 -21.2354 1.85701
6.38016 -21.4421 1.56275
6.49845 -21.4876 1.49641
6.37438 -21.5941 1.34991
6.40517 -21.6384 1.40166
6.63493 -21.6084 1.5892
6.49393 -21.4575 1.69575
6.65097 -21.4639 1.51292
6.67604 -21.3067 1.6623
6.70234 -21.1947 1.39171
6.49507 -21.3579 1.50087
6.72136 -21.2753 1.47842
6.41968 -21.0978 1.7783
6.52258 -21.2498 1.75794
6.39876 -21.072 1.85631
6.53183 -21.342 2.11148
6.69643 -21.4691 1.95357
6.66282 -21.6822 1.8813
6.49726 -21.6931 1.91837
6.52023 -21.4981 1.88879
6.47271 -21.4798 2.09401
6.44894 -21.701 2.14097
6.70489 -21.4601 2.10794
6.4955 -21.1068 1.93842
6.708 -21.319 1.87244
6.71433 -21.2704 2.11443
6.69828 -21.1231 2.13058
6.56505 -21.0381 2.09076
6.53359 -20.9838 2.133
6.63553 -20.9882 2.13997
7.09786 -21.5147 1.72257
6.84069 -21.331 1.36459
6.89914 -21.5068 1.51652
6.75593 -21.3703 1.34456
6.80419 -21.6024 1.66864
7.0504 -21.4659 1.56026
7.24515 -21.414 1.35857
7.27343 -21.3354 1.65514
7.0752 -21.2768 1.51319
7.0699 -21.3186 1.66998
6.88959 -21.3069 1.5047
6.942 -21.296 1.7181
7.07411 -21.1103 1.54827
6.90764 -21.076 1.52532
7.09841 -21.1952 1.63144
6.88351 -21.4986 1.7252
7.10014 -21.6131 2.10979
6.886 -21.6155 1.9201
6.95914 -21.6917 2.06558
6.90115 -21.5083 2.08401
7.10959 -21.5135 2.04776
7.13132 -21.4992 1.84891
7.2448 -21.6776 2.14821
6.92097 -21.1509 1.99292
6.9174 -21.3042 1.92236
6.88407 -21.4789 1.91277
6.88095 -21.1688 2.12045
7.1219 -21.3286 1.9065
7.26974 -21.3023 1.85141
7.08149 -21.2726 2.15584
7.6861 -21.0652 1.33352
7.51682 -21.4394 1.74839
7.32004 -21.2234 1.47162
7.4746 -21.2708 1.47199
7.552 -21.4116 1.36437
7.65397 -21.2772 1.35002
7.37502 -21.4083 1.69291
7.53794 -21.4033 1.49717
7.49962 -21.3012 1.72163
7.46049 -21.1076 1.66413
7.27837 -20.9681 1.36016
7.3393 -21.0668 1.34033
7.28579 -20.9706 1.51487
7.68288 -21.0841 1.51962
7.53158 -21.1223 1.50203
7.57674 -20.9602 1.70879
7.28665 -21.4711 2.10752
7.6828 -21.5142 1.89775
7.5396 -21.6631 1.8723
7.50537 -21.6738 1.77985
7.46917 -21.4863 1.87348
7.63018 -21.5878 2.09191
7.50789 -21.6809 2.08886
7.67967 -21.6943 2.09133
7.49828 -21.2681 1.88956
7.53122 -21.2992 2.06054
7.32576 -21.4377 1.85013
7.36611 -21.2921 2.11134
7.38865 -21.1115 1.85566
7.63646 -21.262 2.14052
7.65184 -20.952 2.16096
7.71766 -21.6693 1.8851
7.83169 -21.4804 1.51496
7.91761 -21.521 1.67523
7.95421 -21.6757 1.36754
8.09839 -21.5167 1.52954
8.06246 -21.6236 1.76245
7.94993 -21.607 1.7651
8.10082 -21.4968 1.71185
7.83972 -21.12 1.81137
7.69946 -21.2684 1.48297
7.69607 -21.3595 1.65267
7.76422 -21.1115 1.70975
7.88377 -21.3977 1.72415
8.0917 -21.3983 1.57215
7.87475 -21.0418 1.70592
8.05971 -21.3909 2.10326
8.08963 -21.4942 2.06995
8.07638 -21.6828 1.90515
7.9101 -21.5121 1.9721
8.10925 -21.5261 1.88828
8.03175 -21.6212 2.07404
7.88453 -21.6853 2.11481
7.94188 -21.537 2.07599
7.83569 -21.2245 1.90107
7.71558 -21.2227 1.93242
7.71523 -21.0992 1.89994
7.71212 -21.1636 2.10495
7.90749 -21.2937 2.1279
8.05522 -21.385 1.9288
7.87156 -21.115 2.10834
7.44857 -21.3064 2.68349
7.19255 -21.1818 2.54656
6.8845 -21.4866 2.29159
6.69219 -21.2727 2.43057
6.45062 -21.4654 2.25294
6.41137 -21.6419 2.24696
6.43121 -21.3177 2.47342
6.69032 -21.4944 2.25627
6.48792 -21.3513 2.32061
6.86398 -21.6162 2.35327
6.66078 -20.9623 2.3173
6.65142 -21.0861 2.3183
6.5354 -21.0218 2.28271
6.52025 -21.1248 2.51414
6.8818 -21.2505 2.45614
6.68045 -21.2342 2.23756
6.71607 -21.1376 2.51387
7.31001 -21.4768 2.31884
7.11368 -21.5057 2.43808
6.98712 -21.6265 2.42441
7.06048 -21.4991 2.33245
6.94486 -21.4969 2.4798
7.27106 -21.6793 2.2121
7.11439 -21.6386 2.2058
7.28124 -21.5104 2.51816
7.06454 -21.2866 2.47465
6.92177 -21.2908 2.28692
6.91262 -21.3084 2.17669
6.91527 -21.0718 2.5063
7.27737 -21.3077 2.45717
7.13526 -21.2714 2.30947
7.30082 -21.2598 2.31643
6.80369 -21.2109 3.14613
6.68754 -21.3078 2.89389
6.56595 -21.2517 2.69421
6.6744 -21.2552 2.74208
6.57855 -21.2849 2.88095
6.56033 -20.9687 2.77923
6.52903 -21.125 2.66572
6.69339 -21.09 2.66712
6.46694 -21.0778 3.11164
6.57936 -21.2365 3.07595
6.50583 -21.0994 2.91653
6.71083 -21.136 2.9228
6.71438 -21.2061 3.21707
6.67067 -21.2918 3.1465
6.72834 -21.1177 3.16974
7.20853 -20.9906 2.77297
7.27073 -21.0617 2.7463
7.13202 -21.2713 2.69097
7.09691 -21.4645 2.67586
7.01334 -20.9768 2.74905
7.28444 -21.3112 2.70442
7.34715 -21.4178 2.65321
7.41861 -21.1726 2.63537
6.89557 -21.1218 3.08793
6.93272 -21.0952 2.90151
6.82909 -21.2091 2.95312
6.84474 -21.0768 2.77352
7.04109 -21.0718 2.95939
7.09848 -21.0696 3.1099
6.89829 -21.2652 3.22535
6.92676 -20.9898 3.10068
7.50497 -21.3049 2.59118
8.02263 -21.3493 2.21745
7.82966 -21.6288 2.40628
7.51464 -21.6838 2.47108
7.50498 -21.5087 2.32423
7.49798 -21.5147 2.5024
7.67332 -21.5158 2.33603
7.64921 -21.6821 2.31069
7.69507 -21.503 2.49895
7.92325 -21.4875 2.34209
8.01636 -21.6132 2.25993
7.85737 -21.7003 2.30119
8.11174 -21.5177 2.29431
8.02174 -21.3732 2.58958
7.87475 -21.5239 2.45858
8.10791 -21.5284 2.44453
7.73621 -21.1148 2.32146
7.52497 -20.9624 2.28385
7.6002 -20.9773 2.24042
7.4725 -21.274 2.20672
7.45156 -20.957 2.17798
7.70492 -21.1056 2.50716
7.69188 -21.2627 2.31844
7.71635 -20.9925 2.46556
7.89298 -21.087 2.49017
7.89103 -21.3266 2.47651
7.84782 -21.3235 2.28066
7.74397 -21.2979 2.50207
7.91151 -21.0797 2.30772
7.89076 -20.9589 2.22056
8.0042 -21.0209 2.40245
7.89161 -21.1474 2.73441
7.86544 -21.3421 2.90082
7.72186 -21.3153 2.70171
7.70459 -21.4151 2.72909
7.46429 -21.4066 2.76397
7.85563 -21.5125 2.61621
7.77615 -21.0635 2.6587
7.52949 -21.2869 2.89912
7.78714 -21.1345 2.89394
7.67545 -21.4223 3.12697
7.53738 -21.5692 2.92323
7.65716 -21.4893 2.91848
7.5327 -21.5991 3.05362
7.69754 -21.3609 2.90962
7.87367 -21.3956 3.20504
7.87892 -21.0922 2.91323
7.90439 -21.2634 2.71133
8.10583 -21.291 2.86446
8.09025 -21.487 2.66421
8.06676 -21.2784 2.70335
8.0096 -20.9859 2.64382
8.04238 -20.9951 2.88876
8.10913 -21.0742 2.90269
8.1081 -21.1022 2.77051
8.12672 -21.2186 3.08704
7.89485 -21.3165 3.06883
7.92431 -21.4427 2.98828
7.90468 -21.4352 3.16969
8.06683 -21.1782 3.12075
8.09097 -21.2108 3.25703
7.9451 -21.0488 3.0957
6.54539 -19.12 2.70532
5.20862 -20.2737 2.66552
4.71179 -20.8871 2.30105
5.44807 -20.8641 1.687
5.08915 -20.9013 1.87085
5.2674 -20.6875 1.73202
5.11482 -20.9173 1.52792
4.92442 -20.9343 1.72706
5.07144 -20.9076 1.70986
5.28514 -20.8765 1.50211
5.17628 -20.9492 1.34505
5.32115 -20.9094 1.68471
5.14581 -20.5118 1.85667
5.11701 -20.5455 1.78273
4.95117 -20.6291 1.8499
5.13139 -20.6798 1.72463
5.29856 -20.3124 1.72577
5.2743 -20.4916 1.73478
5.1392 -20.3064 1.78584
5.10505 -20.7994 2.12489
4.9117 -20.8908 2.11614
4.90174 -20.8931 1.8969
4.78678 -20.9469 1.87909
4.73367 -20.8779 2.17945
5.2714 -20.8898 1.90587
5.06546 -20.882 2.00453
5.30161 -20.8968 2.07321
5.14077 -20.304 1.90218
4.79512 -20.799 2.16305
5.0764 -20.7341 1.92582
4.82134 -20.7966 2.23859
5.3382 -20.5187 1.91102
5.30949 -20.7049 1.89095
5.29958 -20.298 1.90942
5.75833 -20.7407 2.03467
5.46271 -20.4313 1.74926
5.62789 -20.8038 1.43913
5.486 -20.8987 1.37635
5.46893 -20.8992 1.40956
5.58577 -20.7755 1.45826
5.45032 -20.79 1.37965
5.49547 -20.3357 1.74268
5.4988 -20.6574 1.96099
5.47969 -20.8599 1.93787
5.70066 -20.9065 1.88509
5.73532 -20.7561 1.97849
5.62979 -20.4955 1.94653
5.48045 -20.5257 1.93793
5.50329 -20.3527 1.90137
5.52899 -20.6308 2.11533
5.87047 -20.7605 2.07901
5.73618 -20.9013 2.07083
5.47239 -20.9483 2.06912
5.83382 -20.9026 2.13845
6.07361 -20.8532 2.10881
5.87548 -20.9455 2.27665
6.52852 -20.9129 2.23285
6.06797 -20.7384 2.14253
5.69656 -20.3078 2.27792
5.61625 -20.4164 2.03575
5.53693 -20.2843 2.04675
5.6794 -20.2954 2.10114
5.73315 -20.5255 2.26887
5.92862 -20.5346 2.28971
5.11321 -20.4957 3.26246
4.6807 -20.784 2.52378
4.83949 -20.7998 2.45547
4.7824 -20.7863 2.32224
4.71666 -20.9044 2.51469
4.86884 -20.9327 2.49967
4.85588 -20.8775 2.32053
5.09756 -20.8796 2.50872
4.6985 -20.9124 2.91604
4.72242 -20.9299 2.71671
5.066 -20.9374 2.95307
4.87899 -20.4942 2.89641
4.9146 -20.8902 2.90018
4.90011 -20.9055 2.70984
4.68956 -20.4163 2.93755
4.75111 -20.2965 2.96525
4.68437 -20.5309 3.0883
4.88328 -20.9166 3.14772
4.68833 -20.8455 3.08898
4.68253 -20.6816 3.09075
4.8654 -20.7323 3.1465
4.94425 -20.7387 3.25459
4.88998 -20.8981 3.21697
5.07733 -20.6704 3.11896
4.88848 -20.487 3.10258
4.86969 -20.3645 3.10918
4.69934 -20.3039 3.07502
4.74803 -20.3177 3.24603
5.02345 -20.3274 3.1724
4.92352 -20.4649 3.21919
5.10694 -20.4966 3.09745
5.48967 -20.488 3.1651
5.14593 -20.5357 2.98721
5.27262 -20.9202 2.66425
5.42317 -20.9129 2.64734
5.43822 -20.3419 2.31109
5.43356 -20.7964 2.96691
5.46788 -20.8743 2.97605
5.3088 -20.4716 2.98506
5.25426 -20.8907 3.251
5.28726 -20.9152 3.12032
5.11947 -20.8965 3.08342
5.45534 -20.8968 3.1323
5.29577 -20.7077 3.04363
5.26702 -20.5514 3.08873
5.46777 -20.7445 3.09921
5.84489 -20.9244 2.54593
5.82001 -20.7797 2.82332
5.72063 -20.9213 2.90248
5.72854 -20.935 2.69898
5.73813 -20.9149 3.09716
5.64592 -20.749 3.15593
5.50086 -20.3033 3.07858
5.75704 -20.6328 2.30867
5.86355 -20.9165 2.6745
6.53881 -20.6817 2.45361
6.27823 -20.9344 2.32554
6.53911 -20.9166 2.49815
5.91331 -20.882 2.88646
5.89947 -20.8542 3.13829
6.46488 -20.508 3.14085
6.32173 -19.4656 3.24411
5.81487 -20.0687 3.24752
4.88914 -19.6878 3.09351
5.74384 -20.2626 2.47314
5.4708 -20.1714 1.85979
5.43179 -20.1939 1.74331
5.34896 -20.134 1.75323
5.30311 -20.1346 1.92643
5.64424 -20.206 1.92428
5.7015 -20.1894 2.33793
5.28689 -20.2726 2.86695
4.74692 -20.1048 2.97455
4.80424 -20.1372 2.95485
4.90315 -19.4973 3.0894
5.73762 -20.1206 2.64755
5.71439 -20.1562 2.51611
5.38421 -20.2502 3.07235
4.86107 -19.6704 3.21389
4.72448 -19.7438 3.21147
4.70802 -19.9122 3.26389
4.69019 -20.1136 3.10782
4.7446 -19.8897 3.16761
4.71219 -19.4916 3.27663
4.73584 -19.7378 3.1237
4.69625 -19.4871 3.18837
5.44882 -20.1623 3.09583
5.01043 -19.9212 3.27065
4.90561 -20.1131 3.1228
4.89753 -19.8444 3.17916
5.64632 -20.1756 3.15858
5.60558 -20.253 3.19373
5.74822 -19.988 3.27011
5.86244 -20.1046 2.87918
6.3433 -19.6728 2.50959
6.32134 -19.8134 2.51631
5.85345 -20.151 2.44379
5.8551 -20.1227 2.74559
6.34227 -19.5643 2.70873
6.29497 -19.5398 2.55256
6.31168 -19.6922 2.71101
6.45582 -19.6881 2.68231
6.5185 -19.8711 2.71087
6.36869 -19.8155 2.64168
6.53381 -19.737 2.86275
6.48065 -19.6451 2.54114
6.49873 -19.4957 2.52123
6.48737 -19.5198 2.70108
6.17639 -19.5824 3.12623
5.98073 -19.7944 3.19697
5.92824 -19.9236 3.07494
5.89774 -20.0983 3.02408
6.09944 -19.8269 3.13194
6.07967 -19.7272 3.24559
5.96153 -19.7884 3.21638
6.09861 -19.7131 3.12689
6.36356 -19.6831 2.93052
6.31529 -19.4847 3.10482
6.27292 -19.5674 2.92867
6.27796 -19.6376 3.14096
6.43137 -19.6298 3.0531
6.54047 -19.5051 2.93607
6.46896 -19.5008 3.07048
5.51034 -18.706 3.10192
5.48587 -18.8713 2.89334
5.08242 -19.2876 3.072
4.90894 -19.3319 3.24344
4.76675 -19.3991 3.19789
4.78844 -19.3898 3.24383
4.92033 -19.3162 3.09234
5.00033 -19.4059 3.07176
5.02382 -19.3547 3.23751
5.30414 -18.9025 2.91776
5.22522 -19.0829 3.09646
5.198 -19.0958 2.94831
5.125 -19.1243 3.09785
5.41745 -18.8984 3.12537
5.30696 -19.0526 2.95617
5.32237 -18.8714 3.09484
5.19732 -18.1863 3.18628
5.30864 -18.6822 3.12738
5.43815 -18.2033 2.56062
5.30959 -18.3781 3.14918
5.1324 -18.5003 3.169
5.08967 -18.6458 3.15922
5.32392 -18.5398 3.16285
5.09186 -18.2896 3.27681
5.07861 -18.5158 3.26384
5.16409 -18.6444 3.23228
5.29132 -18.3251 3.25111
5.41043 -18.2019 3.19624
5.07757 -18.2839 3.19567
5.409 -18.2355 3.22408
5.63961 -18.6556 2.79237
6.54393 -18.5064 2.26522
6.51922 -18.8773 2.36015
6.49797 -19.05 2.483
6.51736 -19.3827 2.47375
6.50018 -18.9084 2.50337
6.51965 -18.6236 2.16347
6.51799 -18.5075 2.1088
6.50002 -18.711 2.3133
5.76344 -18.5485 2.79086
6.47973 -18.457 1.9211
5.63209 -18.2271 2.68712
5.54844 -18.2032 2.62034
5.91827 -18.2907 2.72418
6.51007 -18.3078 1.92934
6.50561 -18.2679 1.77428
6.48107 -18.3141 2.0435
5.67206 -18.6465 2.94648
5.64913 -18.6738 3.07307
5.60906 -18.81 3.0262
5.5212 -18.7041 2.91589
5.53647 -18.6714 3.20652
6.37319 -19.3787 3.00133
6.52105 -19.3066 2.91013
6.51411 -19.357 3.1009
6.52579 -19.3476 3.2776
5.73762 -18.4995 2.8917
5.89888 -18.4849 2.79261
5.87145 -18.3 2.86835
5.80361 -18.5798 3.04517
5.64144 -18.5858 3.08618
5.5564 -18.5676 3.11472
5.86802 -18.4748 2.95218
6.87638 -19.6842 2.93501
6.74873 -20.6985 2.80036
7.519 -20.1163 2.37847
7.17194 -20.1797 2.68467
7.50258 -20.6318 2.61572
6.72183 -20.7127 2.49136
7.49037 -20.8991 1.51191
6.79638 -20.7025 2.39703
6.81826 -20.7866 2.55857
6.69912 -20.8835 2.51903
6.69381 -20.896 2.67813
7.49802 -20.3325 2.68161
7.49594 -20.6064 2.58513
6.59885 -20.6157 2.6601
7.49908 -20.5161 2.49682
7.48507 -20.2507 2.32434
6.90155 -19.706 2.53865
7.11054 -20.2837 2.68435
7.30446 -20.2418 2.5831
7.50752 -20.1298 2.45173
6.5931 -20.5264 2.79381
6.86285 -20.9134 2.7635
6.80829 -20.5998 2.77662
6.70715 -20.7357 2.71651
6.73135 -20.5412 2.73899
7.16637 -20.6317 2.77918
6.89809 -20.7144 2.7752
7.2904 -20.6357 2.78444
7.30449 -20.3121 2.68766
7.38204 -20.447 2.72439
7.15473 -20.4548 2.68645
7.47122 -20.5076 2.69559
7.04993 -19.7332 2.77568
6.87848 -19.6931 2.69925
7.32283 -20.04 2.73655
7.68621 -20.4875 2.35568
7.62486 -20.902 1.44997
7.63796 -20.767 1.39071
7.62072 -20.6907 1.42472
7.57619 -20.7653 1.60278
7.55572 -20.7813 1.49647
7.66498 -20.7212 1.7436
7.84221 -20.934 1.7142
7.54151 -20.7538 1.88295
7.71994 -20.8832 1.86427
7.71025 -20.777 2.00777
7.85654 -20.873 1.92641
7.80347 -20.6716 2.30004
7.63906 -20.645 1.85653
7.69841 -20.352 2.34756
7.71248 -20.552 2.51066
7.86835 -20.9018 2.75445
7.7885 -20.9105 2.74063
7.81403 -20.7832 2.43903
7.78601 -20.7861 2.747
8.00057 -20.8856 2.48075
7.93202 -20.9135 2.48986
8.10872 -20.7338 2.59633
7.61151 -20.1812 2.53633
7.67988 -20.3192 2.51234
7.52209 -20.5209 2.37302
7.52471 -20.3058 2.50092
7.60753 -20.3353 2.73373
7.61356 -20.4475 2.61371
7.54448 -20.1912 2.61918
7.10718 -20.7523 2.90164
6.68713 -20.3203 2.91269
6.91401 -20.566 2.91509
6.88904 -20.6933 2.88202
6.66626 -20.9206 2.87401
6.62415 -20.897 3.16
7.10088 -20.8837 2.92237
6.93608 -20.9202 2.85473
7.07823 -20.7135 3.07459
6.9707 -20.6044 3.17026
6.79712 -20.4487 3.18354
6.74233 -20.4547 2.86811
6.79303 -20.3548 3.14905
6.62776 -20.5032 3.25531
7.09386 -20.3543 3.02524
7.07673 -20.4725 3.13652
7.03144 -20.3658 3.26242
6.9242 -20.5134 3.16976
6.67788 -20.1205 2.9125
6.77819 -20.1206 3.11538
6.86801 -20.3098 2.91415
6.58451 -20.2953 2.85742
6.9012 -20.2784 3.09736
6.87689 -20.1255 3.12642
6.87365 -20.1236 3.26618
6.92216 -19.7053 3.10438
6.77351 -19.9729 3.02578
6.65711 -19.9124 2.89209
6.81161 -19.9649 3.03514
6.93096 -19.8512 2.92361
7.08537 -19.844 2.82183
7.02675 -19.732 3.07167
7.28894 -20.7122 3.26766
7.51894 -20.7538 2.86916
7.28179 -20.8405 2.89127
7.27387 -20.8486 3.11684
7.12372 -20.918 3.09413
7.28024 -20.7171 3.03762
7.31892 -20.7268 2.90801
7.4505 -20.8765 2.84213
7.48577 -20.8284 3.03855
7.88988 -20.8802 3.01872
7.67152 -20.8395 2.90719
7.64332 -20.7766 2.94491
7.87883 -20.9455 2.9216
7.61678 -20.7692 3.20718
7.61826 -20.7521 3.03185
7.65128 -20.8135 3.25307
7.11743 -20.4356 2.8777
7.45137 -20.5634 3.03895
7.44124 -20.5904 2.97557
7.32342 -20.5056 2.89101
7.27506 -20.5547 3.07123
7.65562 -20.5876 2.96135
7.48894 -20.6577 3.10141
7.95571 -20.6355 3.21044
7.30373 -20.3157 2.90889
7.37024 -20.3783 3.0209
7.16366 -20.3343 2.84065
7.12443 -20.4171 3.26646
7.23709 -19.7568 2.96858
7.1311 -19.7632 2.85452
7.41486 -19.9879 2.92541
7.24977 -19.2485 3.072
6.89433 -19.3087 2.90869
6.93061 -19.4672 2.69542
6.75463 -19.5366 2.55791
6.79649 -19.6708 2.68624
6.69152 -19.5456 2.73747
6.7056 -19.2869 2.88752
6.6906 -19.4789 2.88464
6.65654 -19.2363 2.75164
7.23948 -19.4468 2.84249
7.00673 -19.5652 2.62363
7.03211 -19.6191 2.50742
7.19722 -19.2916 2.79836
6.98447 -19.5493 2.57167
7.15661 -19.1699 2.79613
7.09544 -19.4909 2.90345
6.94035 -19.5099 2.88437
7.08188 -19.3281 2.89892
6.60333 -18.8409 2.54729
6.60289 -18.3134 2.0428
6.63349 -18.4271 1.96084
6.67251 -18.3565 1.9064
6.63075 -18.4692 2.2303
6.62291 -18.6422 2.21138
6.62486 -18.5168 2.07662
6.55771 -18.745 2.5076
6.68653 -19.0635 2.89579
6.63058 -18.9536 2.74119
6.546 -19.0996 2.81925
6.63063 -19.1049 2.6659
6.572 -18.9104 2.68395
6.82503 -19.0175 2.77671
6.80984 -18.982 2.75236
7.07744 -18.8951 2.79569
6.89375 -19.0979 3.08486
6.82504 -19.4824 3.2473
6.75754 -19.6789 2.92521
6.71953 -19.6466 3.00051
6.76287 -19.6345 3.26364
6.6514 -19.3017 3.0879
6.73137 -19.5022 3.07342
6.68048 -19.1096 3.0963
7.22745 -19.2951 3.21292
6.91038 -19.3625 3.12063
6.89325 -19.4386 3.14607
7.14554 -19.5026 3.04689
6.97196 -19.648 3.22404
7.10927 -19.2733 3.10821
7.10454 -19.1193 2.92051
6.85158 -19.1012 3.27731
6.69596 -18.8956 3.25828
6.99194 -18.8988 2.9093
6.89549 -19.0709 2.94262
6.98782 -18.9375 3.26068
6.74131 -18.9548 3.08125
7.07262 -18.9671 3.01655
7.12955 -19.0936 3.10008
7.08989 -18.9246 2.93712
6.94801 -18.6092 3.24212
6.89067 -18.7098 3.15499
6.90466 -18.8947 3.10435
6.7654 -18.6913 3.18901
7.00226 -18.5706 3.2152
6.91994 -18.5768 3.24646
7.02127 -18.6052 3.20986
7.31435 -19.4297 2.754
7.48851 -18.4757 2.34037
8.11008 -18.6119 2.01825
7.45546 -19.328 2.70737
7.32098 -19.3349 2.7235
7.43648 -19.4204 2.65013
7.6973 -18.7128 2.69598
7.71241 -18.6294 2.51981
7.59549 -18.69 2.70499
7.56986 -18.61 2.39656
7.88005 -18.4862 2.09939
7.65309 -18.5159 2.32708
8.08616 -18.5057 2.05796
7.67156 -18.4952 2.53786
7.47957 -18.5302 2.52394
7.68989 -18.5139 2.69191
8.1182 -18.2724 2.12348
7.50035 -18.3019 2.09367
7.39182 -18.2933 2.03683
7.34238 -18.2241 1.8822
7.3721 -18.1934 2.1017
7.74255 -18.3361 2.12225
7.51645 -18.2523 1.90755
7.93916 -18.3097 2.09474
7.83575 -18.3496 2.55696
7.54309 -18.3174 2.27566
7.66057 -18.2807 2.27243
7.72449 -18.3299 2.48216
7.8958 -18.3269 2.70665
7.88474 -18.4746 2.72035
7.75208 -18.3141 2.61083
7.71296 -18.8555 2.88301
7.695 -19.1746 3.12023
7.35835 -19.1722 2.86343
7.40201 -19.2077 2.90692
7.27505 -19.3255 2.87225
7.35643 -19.6605 3.02978
7.29208 -19.1844 2.77947
7.68093 -18.903 3.02926
7.47681 -19.1613 2.77529
7.47488 -18.8696 2.89233
7.77656 -19.2003 3.1279
7.80291 -18.8588 2.77501
7.71074 -18.8761 2.77218
7.86644 -19.1246 3.12026
7.88609 -19.0883 3.27361
7.83686 -19.2557 3.21086
7.81307 -18.8627 3.16229
7.86274 -18.3613 2.81729
7.68795 -18.6921 2.8675
7.47997 -18.626 3.07923
7.54696 -18.6809 2.95841
7.59693 -18.5436 3.01963
7.85755 -18.6454 2.9059
7.71852 -18.5466 2.81832
7.77098 -18.7329 3.10727
8.02671 -18.5958 2.94393
8.0318 -18.65 2.98814
7.86932 -18.757 3.15447
8.04572 -18.6866 3.10521
7.95348 -18.5229 3.05596
7.89985 -18.5121 2.92447
8.11563 -18.4768 3.07479
8.08006 -18.3592 3.15759
5.74697 -20.8617 5.78783
4.9586 -20.3081 4.72661
6.0584 -20.5591 3.77713
6.01149 -20.6821 4.49675
5.45458 -20.5241 3.28081
5.28397 -20.5204 4.27664
5.21136 -21.0863 3.3136
5.33833 -21.5711 3.32573
5.15606 -21.3102 3.28307
5.1002 -21.0876 3.29706
5.3462 -21.2295 3.87098
5.38281 -21.1047 3.83159
5.12988 -20.9428 3.40945
5.09224 -20.726 3.29458
5.11582 -20.8766 3.31922
5.29237 -20.7125 3.29323
5.00838 -20.6575 3.59231
5.04846 -20.5328 3.51861
4.8859 -20.6652 3.70092
4.92144 -21.1236 3.99313
4.90223 -21.1284 4.05301
4.67148 -21.511 4.29536
4.70514 -21.6203 4.33604
4.77561 -21.1952 4.15286
4.74522 -21.1379 4.32217
5.24165 -21.1979 4.01424
5.03554 -21.4802 3.94825
5.07824 -21.2208 3.92599
5.04543 -21.1778 3.93389
5.12639 -20.6526 4.22978
5.10472 -21.0977 4.0333
4.88429 -21.0997 4.42464
4.68337 -21.1225 4.48776
4.87748 -21.0943 4.3153
5.43499 -20.7962 4.21924
5.06426 -20.6268 4.16485
4.93316 -20.5437 3.91914
5.30905 -20.6517 4.11789
5.31791 -20.4591 3.88924
5.06847 -20.4622 3.69283
4.92506 -20.3234 3.48186
4.92723 -20.4858 3.41665
5.03263 -20.3413 3.34909
4.96988 -20.5192 3.69252
4.73293 -20.4406 3.72537
4.99186 -20.3625 3.65616
5.08773 -20.3124 3.5346
5.26156 -20.5032 3.45647
5.32429 -20.5116 3.30782
5.35351 -20.3623 3.35512
5.17539 -20.3863 3.84429
5.09664 -20.3809 3.65721
5.07322 -20.5021 3.87638
5.29335 -20.3833 3.67871
5.10442 -20.3224 4.44615
4.89784 -20.3672 4.30743
4.71899 -20.4968 4.25642
4.70038 -20.4437 4.18864
4.78914 -20.4863 4.42598
5.0881 -20.4797 4.29807
4.94908 -20.4563 4.33651
5.09288 -20.3662 4.39801
5.31305 -20.4821 4.1193
5.30574 -20.3214 3.95111
5.10709 -20.4703 4.11902
5.41305 -20.4479 4.00979
5.42148 -20.4389 4.38415
5.34695 -20.3417 4.27836
5.28654 -20.4723 4.46484
5.55588 -20.7059 3.51744
5.85481 -21.2186 3.43036
5.68716 -21.0754 3.31836
5.78272 -21.2526 3.32716
5.50247 -21.3524 3.41726
5.9357 -21.5408 3.38933
5.73827 -21.2079 3.41937
5.49469 -21.0979 3.30546
5.83797 -21.2384 3.37547
5.70516 -20.7347 3.32016
5.65799 -20.7219 3.42431
5.50035 -20.8997 3.29776
5.69612 -20.89 3.35527
5.9033 -20.9058 3.28537
5.84683 -20.7282 3.29056
6.05598 -20.7478 3.30931
5.87709 -20.7175 3.73159
5.79474 -20.8765 3.71186
5.91736 -21.0348 3.49438
5.94955 -21.4449 3.43642
5.90033 -20.9391 3.4875
5.89255 -20.7943 3.5937
5.70989 -20.8638 3.48376
5.90519 -20.8707 3.67695
5.49385 -21.0871 3.9062
5.79186 -21.3361 4.49115
5.69945 -21.4413 4.48972
5.77933 -21.2015 4.38493
6.0329 -21.0589 4.26385
5.85146 -21.0699 4.0647
5.8214 -20.8211 4.32265
5.91258 -20.3613 3.86494
5.80273 -20.3189 3.3907
5.58189 -20.6493 3.66585
5.46726 -20.3087 3.29072
5.47404 -20.6907 3.28281
5.47864 -20.4664 3.46308
5.7351 -20.6713 3.66653
5.51182 -20.5026 3.74157
5.74212 -20.4708 3.71954
5.88593 -20.4927 3.70048
6.03822 -20.4254 3.4509
5.98989 -20.4109 3.46393
5.86928 -20.6919 3.81775
6.03995 -20.3161 3.6365
5.83459 -20.3896 3.78998
6.04427 -20.6153 4.04963
5.69691 -20.6259 3.89874
5.67409 -20.3411 3.89616
5.49317 -20.5148 3.93636
5.69594 -20.5361 3.91893
5.90684 -20.6138 4.00028
5.76647 -20.4609 4.00175
5.92456 -20.5037 3.929
5.5006 -20.3167 4.32782
5.85113 -20.3558 4.11945
5.7781 -20.3413 4.06695
5.91099 -20.4319 4.07561
5.75557 -20.3419 4.49478
5.65366 -20.3259 4.33298
5.84308 -20.3515 4.37098
5.43167 -20.4874 4.67649
5.0906 -20.4664 5.09009
4.71575 -20.6306 4.92636
5.14737 -21.073 4.67588
4.84958 -20.8937 4.52814
4.71651 -20.696 4.67445
4.72575 -20.6884 4.55641
4.87901 -20.6337 4.86203
4.6901 -20.9459 4.71343
4.80175 -21.0481 4.68426
4.66407 -21.0779 4.70916
4.86662 -20.6342 4.71059
4.89299 -20.8943 4.6948
5.16507 -21.0934 4.93198
5.03537 -21.3296 5.06763
5.1374 -20.6818 5.04188
4.9734 -20.3623 5.02716
4.76118 -20.4662 4.72279
4.92329 -20.5016 4.53719
4.87354 -20.5412 4.66227
4.75239 -20.3269 4.5254
4.86601 -20.5603 4.87773
4.76307 -20.5109 4.93574
4.93326 -20.3911 4.84339
5.05528 -20.5489 4.74347
5.28854 -20.5971 4.74114
5.40881 -20.6256 4.74264
5.24924 -20.3229 4.53914
5.12289 -20.4621 4.91789
5.05513 -20.3728 4.7958
5.29324 -20.321 4.76083
4.72716 -20.5077 5.3028
4.94691 -20.6159 5.29732
4.7738 -20.5492 5.13252
4.77747 -20.6038 5.20493
4.89224 -20.6395 5.15524
4.88154 -20.5137 5.28054
4.8864 -20.4966 5.11903
4.9 -20.353 5.28821
5.13961 -20.68 5.2763
5.27421 -20.7292 5.12383
5.27724 -20.8301 5.14406
5.29636 -20.6903 5.25458
5.24222 -20.4656 5.13618
5.10389 -20.5475 5.28149
5.17255 -20.3533 5.2814
4.93198 -20.4105 5.50528
4.77221 -20.4382 5.44877
4.73321 -20.3718 5.42806
4.92716 -20.5545 5.70476
5.09483 -20.4565 5.66311
5.08098 -20.5481 5.49886
5.09121 -20.6674 5.56953
4.96098 -20.3376 5.46789
5.26511 -20.5719 5.45878
5.29486 -20.6735 5.47665
5.38803 -20.86 5.3051
5.3346 -20.6832 5.74564
5.22505 -20.4962 5.74195
5.27305 -20.5225 5.37364
5.28534 -20.3399 5.78693
5.65824 -20.6885 5.10313
5.70396 -20.5219 4.90024
5.79339 -21.0529 4.9087
5.89318 -21.2313 4.71656
5.83821 -21.2636 4.51895
5.74475 -21.2936 4.70686
5.9765 -21.0646 4.88481
5.86816 -21.0655 4.74477
5.73414 -21.053 5.00463
5.62558 -20.8673 4.95354
5.928 -20.8739 4.5564
5.86463 -21.0006 4.52368
5.90055 -20.9939 4.75298
6.03323 -20.6476 5.04018
5.738 -20.8855 5.06808
5.86118 -20.5283 5.06079
5.63428 -20.4713 4.7793
5.66948 -20.4132 4.54909
5.51872 -20.3312 4.61564
5.45433 -20.4806 4.51185
5.61679 -20.3097 4.66412
5.94289 -20.4007 4.55652
5.93767 -20.4988 4.69942
5.89705 -20.346 4.63898
5.68063 -20.3779 4.91977
5.48853 -20.3362 4.96655
5.50887 -20.4424 4.84408
5.62074 -20.4178 5.04537
5.94996 -20.5009 4.90563
5.69706 -20.3427 5.05183
5.9515 -20.3818 5.08264
6.05379 -20.7668 5.20561
5.86669 -20.9303 5.6816
5.76403 -21.0072 5.36717
5.50497 -20.9317 5.14775
5.4897 -20.8864 5.30623
5.67419 -20.8889 5.27081
5.70795 -20.9302 5.51937
5.54333 -20.8037 5.45005
5.81862 -20.9216 5.55946
6.03391 -21.1725 5.53335
5.94484 -21.2637 5.46834
5.95414 -21.318 5.37
5.98701 -21.2304 5.67855
5.95976 -21.1705 5.48082
5.97912 -20.8056 5.22849
5.92363 -21.1227 5.68411
5.50019 -20.7157 5.49936
5.84199 -20.6674 5.16549
5.55163 -20.6987 5.15149
5.51846 -20.7505 5.31649
5.6843 -20.6542 5.27303
5.95451 -20.7642 5.24453
5.87703 -20.5964 5.20894
6.05699 -20.5956 5.34812
5.65005 -20.5495 5.71569
5.48825 -20.7119 5.69893
5.51872 -20.5537 5.54317
5.57998 -20.5358 5.7614
5.69411 -20.7044 5.54433
5.68954 -20.7197 5.69885
5.92318 -20.7184 5.67228
6.98079 -20.338 4.30955
6.89756 -20.7801 3.73697
6.52093 -20.7203 3.51206
6.71254 -20.8816 3.36093
6.46517 -21.0676 3.40961
6.35758 -21.033 3.41088
6.28467 -21.5387 3.43507
6.28423 -21.5469 3.33835
6.29321 -21.0786 3.28675
6.0957 -20.906 3.51502
6.07559 -21.0006 3.49084
6.32506 -20.921 3.33107
6.29136 -20.8892 3.48328
6.72057 -21.0893 3.27918
6.47023 -21.5499 3.45119
6.69538 -21.5952 3.49374
6.4887 -21.1049 3.27966
6.50574 -20.8871 3.52894
6.50089 -20.9276 3.32734
6.75279 -21.0785 3.40471
6.84773 -20.9217 3.47517
6.14129 -20.733 3.63339
6.09472 -20.8652 3.32687
6.0947 -20.7274 3.49703
6.27129 -20.7912 3.3734
6.30085 -20.8732 3.70256
6.08803 -20.8486 3.7021
6.10351 -20.8538 3.92819
6.71393 -20.8271 3.66713
6.43846 -20.8736 3.63884
6.67227 -20.8623 3.49463
6.87999 -20.7346 3.44895
6.81283 -20.8565 3.39994
6.83479 -20.8118 3.8157
6.22959 -20.3563 3.73929
6.52981 -20.7197 3.37274
6.4734 -20.467 3.47449
6.31995 -20.499 3.30908
6.48317 -20.5046 3.30795
6.30851 -20.5276 3.54382
6.32563 -20.7037 3.5112
6.32246 -20.7094 3.69736
6.71085 -20.679 3.52461
6.85012 -20.6908 3.34066
6.6834 -20.7202 3.356
6.88501 -20.4782 3.31223
6.64625 -20.5577 3.57937
6.53824 -20.6864 3.63213
6.6951 -20.6668 3.67663
6.34966 -20.5382 4.12727
6.29387 -20.5297 3.74889
